-0.547946371763869,0.22141270350988926,-46.73377202268818
-1.4706424149572968,0.16739345682975965,-87.06626937778081
8.125254222114425,0.22877530578073824,-9.925266522020634
7.3301783236936355,0.11120649139785718,-170.498481911549
-20.179074197914094,0.2434881814098625,212.33450559074703
10.547997882162424,0.13122536814312427,251.54234656123933
5.252803958735834,0.2876190199016412,235.5009550044116
-20.05750225545199,0.23454596689716284,-107.41097793457376
-13.721754912865647,0.1759462340566651,-154.13893305124043
-38.40827833188167,0.1567650131279119,-102.9812434790411
24.984593080777362,0.24055666233501732,189.2312393463289
29.84625371013399,0.21588040739926023,75.3823301621757
-16.830436946820864,0.2684388634520176,8.417070824168478
-11.624622019366829,0.1566323123547979,99.36816509026161
39.8651668454541,0.18839237080861315,167.81980229069114
51.037263649518046,0.13907007587007647,112.30342458670617
-9.289504376456376,0.15472365593936083,204.41910692019988
-11.002873881082618,0.19463562519605848,145.87017022481666
29.67763351999436,0.2355424901339801,26.336096394084187
-14.148199697979898,0.2459052243370629,-158.38927956372356
6.4111894913390035,0.2472470274261595,-300.547529144919
0.2984388617525914,0.18700278950782007,-112.0841611964226
-10.864521272939665,0.24005632370781488,272.0070084214671
1.4549323248209676,0.16830807715168025,182.40021065295122
10.137776468534614,0.20881820324117936,-22.078550318574745
3.7020191051048457,0.16750784742864563,-75.6575075951643
-2.832002247761368,0.2551603628613205,231.34223027810904
39.65178479244118,0.21715435303911845,70.14068391984655
-5.315968451194088,0.202435227824046,195.3067349907097
32.642649781897155,0.17070234014390243,-147.20935216221213
-16.89031849131837,0.17303028556489564,295.8099762078079
24.079336907700007,0.2677631686350413,43.94486065809465
2.3909453115497756,0.26671377378064365,-64.31879044988675
-9.67829522729808,0.15453226018493912,-36.97921574889843
0.3949287001341072,0.21067160633111864,-91.05915767893666
-7.770263873366669,0.1352988959481707,126.38492278672932
2.6623433205612184,0.15098206051682284,-20.53130441988585
-1.2253308722089153,0.18215601755334332,-7.769430613749504
16.953259581823442,0.1900161891313652,104.80746290334307
-19.746752084183047,0.18744440435142398,166.61168914348664
11.138883976070863,0.26248920305244633,-172.91310888496992
3.941845731793881,0.21984585614568392,-308.38095731300007
-16.503729110984377,0.20756412787848463,-188.4912969613212
-30.537797728095025,0.16369218060143959,462.52999005848733
-20.782808985336597,0.15212032182758412,-145.32251243596147
4.272730489046902,0.259217626723926,125.4017884355558
-4.356186566154928,0.09696762018293702,276.9615308657473
-48.249274767110826,0.17857194198939338,-188.01545270016803
-4.887423840720904,0.11436246890194969,12.616063323664115
-7.736248734377274,0.1835684285844054,51.459707039367316
17.917493864650808,0.21174222293658385,122.34293934961464
-36.730225972685716,0.18666948134841446,-121.11387300685811
43.1689147923317,0.13170767114182153,103.51646634714358
34.10011628891213,0.2857848598535712,299.36946791746095
-30.90657996870068,0.12834832294189558,143.40203239636583
-17.961641605980713,0.2502243047825608,-116.1023994800141
-5.002231694120099,0.1577095508718134,-148.39914909095236
-0.3274689653204054,0.2482841964076547,349.56329216928054
8.95551154487784,0.21185669613293676,-190.0997227092074
-16.211190171206372,0.2361731933116346,-25.22531236661901
12.067442634264196,0.246358321303875,268.7338697258704
-7.330187280217176,0.1644303431385689,-176.65063047681636
22.960671980947676,0.13164827507210336,-200.88780687534071
-3.1139788425740282,0.0907676393134034,290.97623599583585
24.259354640451527,0.21323379801184728,-95.78818467150262
10.826752625721241,0.30702169009718683,97.35583682545348
21.137892401784505,0.26195453211800385,-202.03796403545203
-30.82092242246832,0.16824986434251288,4.762892673203303
4.221020997201927,0.128799699188446,-240.63184433450303
3.947349003799591,0.1902602160285591,-233.879362919552
-5.118525536353768,0.17007515996503167,-127.95205134811958
19.957387727423423,0.22549633415985956,44.732923821446754
-10.404140109831385,0.21709480963498318,131.71257704905986
-9.00511898057555,0.15592435699004126,120.95540908860511
-15.965610683422167,0.1598369137357679,-53.00385979207207
7.925534454235602,0.20904419323142545,-370.46896251074617
19.035502990456802,0.15448611134803028,-51.669462261604885
6.177779013231025,0.24627414620924404,-108.05407699644229
-7.681481666254587,0.2610805838537363,-111.389653990964
1.0607054053261957,0.21452881857174816,-134.76307905352027
0.33485999838003605,0.27251488790158696,182.1538816162455
0.17329153807053127,0.26766741986769194,328.0295738679416
-24.542905391088237,0.2727449995140929,92.91104243728986
-7.252654632592568,0.238334470550165,-402.7581451014182
-0.23564767832565583,0.15605023178904082,-211.2552316979664
-29.229544308629308,0.32788528240262704,99.09322149095439
23.64025795634597,0.18742814283811013,-146.89017314404714
24.246930981208678,0.22097091252869008,-229.331802354745
5.904116789249373,0.21890331889351455,145.10866323409516
-7.52106749118381,0.146921413406044,199.7450087874013
20.641194852054806,0.16097868826901027,-215.1786525564978
-11.732429224915503,0.22508207538462024,157.1614872990545
-18.263499312674377,0.18912823566265757,-638.0754177650095
10.134422770141128,0.0657017248690192,-401.33787667963475
1.5853520813320467,0.11563737179728045,357.14174899746206
3.6767119614676536,0.2600659156869492,128.1173210955334
-37.877772992401255,0.16871707114416581,-158.9523683319845
-17.191604616400756,0.16151820178283505,170.22765205697107
9.2736034595382,0.22344778860846612,115.94440497963501
5.117382971192333,0.20024418953720527,10.352837667649263
-6.2389311598583275,0.17326577695994647,-226.003977230163
17.827140866196125,0.27290063281753163,-202.01703580817667
20.624539434477906,0.20801895706177378,28.65314763446316
-19.17933490421317,0.17030009569361593,109.15274219122925
5.650389003534037,0.1729398143232573,85.3876389416102
-13.109331595465882,0.16979625972612203,402.4553774922544
5.998278148908593,0.29392374524029785,138.29970513368605
23.02290708516773,0.15628800397186374,-191.46915629762952
-14.96008883205192,0.20021394131318582,113.23814120800076
-5.360461863456187,0.1276088702500508,273.2928632447347
10.030544462006436,0.2165354948720458,315.7869606727282
5.121798643739305,0.19060560923997263,17.603137670078908
-21.915923335208433,0.11581209584660404,-69.1610733753
-9.225122209089577,0.20249028190973178,298.6278612707168
55.366786278531244,0.25240487627727926,-272.9516905112152
4.99358842743452,0.21629193170651284,109.80846027416811
40.91421321871502,0.21661227364968966,-6.396979052201789
10.833252744700248,0.2247628891669765,30.136370609677687
-36.209283768423575,0.2778317202844466,189.69644189358112
14.410387184295818,0.20950614924370314,-73.18451682996778
6.538635098994048,0.2136107943380358,-139.84389812000762
26.68406835300669,0.2280656308752216,-146.41129771014866
-14.973501241190817,0.21085600509425964,7.719197736035986
26.34907726602918,0.25616589854005956,79.1049339599895
-2.943071549024625,0.1804740128149751,-184.91813770385184
5.595927329876585,0.15521806255495055,403.43690670609476
9.573566090913545,0.2711587588806949,252.0666706196425
9.145253085069449,0.2208384388390246,-47.48369617385737
-26.243675969130493,0.1479287508403449,39.80228871961645
60.453131408729554,0.18924762178537904,-26.42843169736399
-12.698760936346778,0.18140174745141163,-261.2583637662975
-1.108497940387013,0.193820976540527,-162.9921353576325
-6.721177659476943,0.17785309916466654,394.910259319675
2.7222453193572282,0.1812832491307042,-263.636769862993
-2.132707821292301,0.24541574046864398,-66.04481888463005
-35.40376828395973,0.25637064238212115,237.946110497676
22.079643926760593,0.17700138391308273,-155.66169619730746
16.001342228798304,0.21581380399642,-236.61552795078714
-11.603927821894898,0.18901738210889887,171.5020065321465
15.378112290406055,0.22954139251565317,227.1656389520989
2.015042962018448,0.2608405050791174,-259.658517205757
24.174237352332753,0.2615538632733239,-276.7002026613876
-30.354358659884433,0.19237578831755714,151.6938929739004
8.459571597586732,0.25317081738523517,11.616186036400949
11.384796620722032,0.2974344988552468,-167.73924274441873
12.295601490949068,0.2801426993110051,100.69532920284439
-8.13203771110556,0.2043489318091788,-60.95968236223748
-14.284500614786243,0.2812593649240493,-139.53926684759216
-4.355373221475021,0.1916788281881405,-51.647232611672145
-7.530582971568821,0.19406786681101632,90.98609266372125
64.29952865291904,0.18738051604890987,58.77244341463369
-33.0985738139688,0.2894068675813734,-130.46738051444794
0.5286023620821738,0.14651679071031296,58.00905457557505
-0.5055600213424037,0.2634612080557993,21.656776903373256
16.97254461264213,0.19627612432213173,-218.07966535066888
11.148375568788847,0.21456921267676599,220.7196208048755
38.00940761524094,0.18023952599928358,-55.60488913994097
7.273488983405034,0.25321410684745693,100.74771511110183
0.580612189048705,0.26312567458955916,32.12710044356661
-23.691951526524328,0.09516971754485529,405.8103837011716
-3.6016386339180233,0.2777798403397229,-27.032011545732054
27.829271458052965,0.20190703040698255,160.49164715450675
-11.420959569313121,0.14735255872963404,192.93010531386946
4.744573354379941,0.2504131196362609,120.44512538732899
44.16895742506681,0.19148113163557748,-66.5209417897784
-2.8384457859527985,0.13666931057686996,245.1577326878528
-10.147112412354016,0.09786177168412258,-304.1332205178536
24.14133618137443,0.1754707837595708,72.24022485765258
26.285598143372827,0.12690300769384694,-52.49028399849509
-41.851666189043975,0.26424789837853196,384.51831997752333
-11.349118631983416,0.2856853362687811,-83.22390876935025
-1.9464850182876519,0.31240977311663076,91.81147464319264
-14.728524310384525,0.2063767970210874,245.3943478587094
-13.975196008242591,0.24544942936922184,204.1293700606995
7.061294686432621,0.19083469054686794,36.46913789675804
13.262823959150845,0.1966629158212553,-504.8230104612107
4.42174607046464,0.1682873525189645,-41.838889399855404
3.492742950301737,0.1520452845341263,318.199442492778
17.916879519853687,0.253611783211746,-18.893117854486235
38.626593920136344,0.20667940330953355,-126.13441163329284
21.003928885024603,0.23246473875865073,-169.75461075205223
-27.535387690814602,0.24530253531804858,103.26488320903515
15.016029520702247,0.19729928043300315,91.10551893770193
24.75195114084019,0.2749790013477491,75.80873346931841
0.378197159333882,0.1586717542215393,109.0255674104503
4.145553180907481,0.22073507424691258,62.53280076912172
-29.244781511493386,0.19794972759831533,-298.78084840724523
-7.340389346453177,0.2249158225283907,26.910163036137728
25.350243535459395,0.1587015561455206,-116.8532952143738
22.40440336717525,0.205444582276263,-13.021735648861501
24.15231328552072,0.21014644695416462,90.48569345460616
-20.402207850722785,0.1447176016744669,20.1043037717869
-4.921766556750617,0.20657233328735236,-213.46188492421732
21.879771189163133,0.2273295013287162,125.70507897357295
-15.622061385573325,0.18240214111550618,320.9054587010741
-28.935609015283067,0.25184786163807477,240.94590597663785
2.391638256404857,0.20785133387661564,93.71837704303826
-31.943372664126276,0.25605895235269677,-10.63692647015453
50.63864283672092,0.1604430212968093,-61.39792589436126
7.782072321531052,0.18400448987888837,-299.3297502410485
-30.44933423372398,0.19852855591973786,-320.70747668523217
4.8701119307250105,0.1874270268637553,-39.752580435786925
10.264143342946372,0.19763895794570047,80.44946882454869
-20.98739005218059,0.26957974374666893,-233.42604968312335
20.353472802087886,0.1681891754195235,-29.134739373561835
-17.636576639333224,0.15611776887537454,-8.49865004800095
-22.630452104278493,0.2362370680536558,174.05487682435694
-3.3311472052126287,0.2486455941273255,-129.9823221408213
-5.071809785871613,0.2890652536102675,167.87067767365386
7.182898274920531,0.18204133042252735,-41.81912644181073
-6.090948080271702,0.19487801767931962,237.7672132195701
-15.601075333741303,0.2099166077336289,29.702576930688295
11.149494843626048,0.15645516434962495,-328.26561093738565
41.165204790174705,0.2537452287627262,175.82963238878136
-0.1745992262723918,0.17916754299140253,183.97109078741374
-3.9090570371200033,0.330242563580247,52.50181140704242
-1.1106191679426867,0.18719088192951253,135.42794335914147
-13.609263087618107,0.20022989982023814,186.28899806134152
-15.146214805907793,0.21805814344866206,141.83375788706925
8.20257406299273,0.2679458986490794,362.1235822361845
3.5528478727343336,0.21812632715128288,180.20018253234255
5.216625294248704,0.1391566719097265,-75.2556872620697
-31.672500874425893,0.27943618026036204,262.6201350879643
-17.483344721436527,0.16373332253499367,24.23733067629344
13.142341385648697,0.23328216098059368,-139.95138175503413
-31.541017333527442,0.17620668749557128,359.7904720770861
-18.616039812010314,0.2641920595521454,113.89724679285837
-2.4884100322297216,0.22512979170702108,166.4488966095184
-10.581992107876228,0.27762383080928615,7.055188829577166
6.745237957535657,0.15771860938356477,-94.30017508093857
-5.874875040836893,0.18116930682888466,286.16727761018404
3.3022862011605163,0.17077862330342897,132.5292705565114
27.92150309235415,0.28958390282843466,296.55272833543563
6.8204556556814335,0.3001169369923971,-22.479855264622554
7.402743138066742,0.11902907574649468,-140.49272203555947
3.081632906741856,0.1583415684337069,269.5820667574886
-27.71145986821662,0.2804644352947328,265.73671357593645
45.16990181461737,0.23118181727190928,-327.1630640230297
-20.674429454355906,0.14088071291331764,-116.5665770322725
-29.758804526346868,0.20454409872180768,-75.3909977728897
17.734405735041975,0.2303926355392358,-134.01979433663098
12.19038465290431,0.28893260054402087,-71.00414249699976
22.983776082723807,0.24079329838604405,101.03914660827391
-20.11285298869032,0.2137319475554905,-232.64073852225
-55.313867426722894,0.30061570490001566,22.22022134771483
-11.808631106761032,0.18836024473650964,153.29494608995753
-4.938326586176025,0.24831273942051857,167.82430808230177
13.412536465145381,0.1466608255834107,130.60151147980002
16.859819563104786,0.1598239129761035,-359.9068417187683
-7.509046858947215,0.2097181963597766,428.6377136243249
-12.788180170540482,0.13612129926653882,194.77353064230485
-12.902338573315927,0.20368326745741988,-292.80707246118146
3.2027963744992443,0.31739298193904136,61.882277705594525
19.096781764568323,0.16244453169762302,-104.89683074310507
-9.92799686626162,0.18097299832655928,10.124052968902433
-21.867071154487952,0.18837821914879144,194.56415742914007
28.80096935389746,0.2292795878845334,128.9860943505031
6.513368605555123,0.22615580079592512,-25.125989795579596
-16.61002196078232,0.1693155233265219,67.33403002341944
29.36307414953614,0.15069856730508685,-101.09600215471788
17.347044242621422,0.22275362634040546,41.56096968984299
30.582632422413635,0.2148871644514289,29.79341190593452
-18.80593157392296,0.13880028141676498,-346.5615327586766
1.3875987782203425,0.139892345302639,-104.82358001109797
-14.615278722249702,0.16698363996863963,25.2162287659907
-0.3444996307273824,0.16930759363364964,-293.01528179139564
-27.07319649251363,0.28684810991518667,359.5468328098613
-12.777703444193254,0.19581098103547936,48.72516665576336
21.238412877955057,0.19023480017500077,-97.4210402155853
-6.633361483421604,0.24245162966445602,-91.90441365445096
9.072687244502134,0.17380911533444532,228.4274274238102
12.482034993670277,0.17471662276915834,141.96927873551573
6.799124780327794,0.1336593537543106,92.49114892173122
1.2687023442423744,0.15155299850641946,71.29721088918487
12.759205442168064,0.2087101123462059,-207.9673087312215
3.9394251554577515,0.26321148742508904,-93.0025900205406
35.79819341972496,0.17525182937422162,139.30133008548006
47.81116640578333,0.2442189239104169,-53.186531502122904
6.334838887348019,0.12152352454296003,267.6407644143384
-15.833546105929095,0.23393597848809583,485.1800129427664
-19.373905548831083,0.20007324767507864,-226.96535538133605
5.556314258729938,0.15305306723996642,-3.8072826086733245
-8.25243645622839,0.16140510612905146,-427.68124598437663
45.076317496167206,0.2674263055173015,267.78790977535635
3.5573914142300103,0.13039230030965,-183.16068791411547
-10.639922273483393,0.1545548763760596,-216.19972108051434
-6.7286831911523,0.17079386921197268,-158.94909938555207
19.661443304540928,0.2123549646790142,-210.15729490638023
26.203861148710203,0.26266183280072186,-298.51122303145644
-12.406845963750524,0.17866935960085478,279.8403084595757
14.961194885338767,0.24510759462133463,-505.01119338525416
-48.91199458271396,0.17094507017635943,-100.82428076227627
-10.222175613072839,0.24891904233224746,-2.8014574469901476
0.06898921357029256,0.35937107169004606,67.1252141484179
10.775560273270145,0.18489192932414028,211.77749096858483
6.371628866249546,0.1803211942808494,-142.11890826686346
41.59458757361545,0.19828902026137826,19.793895454523184
37.70784663089847,0.13080509106183563,155.26834450980843
-6.718320902820586,0.2213027088267285,-177.33594350198868
14.749102793326154,0.1954439831057286,210.3726084863674
-36.750718433054146,0.28403308655496134,136.63918498464534
25.77477365688511,0.22969371860803312,-15.22692497108479
8.660662945823649,0.20999175077613014,-100.96096075033341
-3.2184543419889806,0.18182906464813056,-331.66731121819424
-16.751778530992915,0.29017362451326867,-81.1015782934861
-8.04313147269813,0.27222928313893274,-102.18561777115885
10.96111027150858,0.17830464570685606,-106.51522279014199
-21.953777738131382,0.15633251406347856,-234.1085796100758
-12.472949355385586,0.1284217400303453,-43.51225015097594
19.671558844293806,0.18203882145039885,62.06682034652328
3.399530235146183,0.17785514408359057,-31.947985841323618
-39.44914774975435,0.21397734912489594,157.69871011968792
24.465635027777353,0.17402183430163107,-228.6508410134842
7.092615363366292,0.15957929766382462,54.10331847740213
-4.114158076655238,0.28817873061122296,173.31590207866608
14.660681986554238,0.18386206971082553,144.83229853628438
-14.27026027468215,0.15132134380068737,119.15943205026109
3.3572176617194573,0.17196714362549093,106.67461872059816
-8.241882168404809,0.14762743153559799,56.22149947445666
5.037529863256609,0.11939919129752469,125.11659171293931
39.83456086083279,0.18396173769758312,49.52830500985593
27.00755794952088,0.18688185291200468,79.67611504386836
31.7106089827681,0.1900680638932776,529.1393311438986
-3.102442900980558,0.21964098073069627,601.9843987997081
-17.893411978000017,0.2273014230690092,324.1994349914355
22.979842643245533,0.14183869943266303,42.01857659791474
-24.031939534551334,0.2619826076766174,118.14437397197158
-6.820683171371725,0.18754807945578392,156.80833115472984
-22.362771587378,0.15119354367015073,-73.78729568647816
5.272435064373136,0.13981645292070102,204.02354926105346
60.445641384225944,0.29351721256625873,76.0300183716346
-25.649391319898992,0.2342606787796359,-156.4381066243558
-9.882623050222131,0.17664951288983685,-0.8896673647814926
12.840143525319913,0.20276207367584861,-115.03290310370802
-11.063193638859296,0.2695037008577686,-80.62613765992644
7.195507196401925,0.2622282652456852,116.89148214505778
-25.402288399328206,0.23596336879536123,-51.70575261068896
-30.508516390544514,0.2465947504404742,-13.76578185718031
15.237746917510346,0.16169115636023562,347.55450767365323
6.047677588800672,0.2100868413752665,262.4226700454875
-16.87609921496429,0.16230169846746131,-209.8989114279993
20.69447819290275,0.2008758879795303,-57.23383500804551
23.596224364639518,0.2517778980595343,-88.84611834730698
-32.3973249522901,0.2176910665701508,-53.27183380421733
-1.4235338861741296,0.21479447273441107,192.8641837902017
30.946501039660603,0.14845317980983302,-113.18546571099111
13.863108690692474,0.20776357642133958,254.84477447103836
23.18711670183523,0.20005306618011082,114.38011588213215
22.280097268882205,0.2094006898764629,-222.41015753049297
37.04662075754022,0.22205756255301426,170.97731609383595
-1.3016145716306018,0.05438954739168031,-314.3202090357425
-3.3554431701112275,0.11239086317041012,118.70011844840653
-27.888716052347213,0.21152660383111202,227.2951385178576
-19.073340287957304,0.17794806829753812,-21.935515984342
11.934867292630715,0.22554517723412282,-192.58322343350295
-20.911173302875234,0.13219757789966255,135.9794844252391
7.919347099760998,0.19596010118029725,90.7007927465884
55.446900019677265,0.23774261908799485,-286.2696425938743
-16.902172274683874,0.25019113560205686,33.32801047843766
-13.61811139867086,0.21169934569910376,148.990308153656
-13.316077000448656,0.1939419759810827,-39.569879453429344
-23.81490915663417,0.16432597691250517,-19.5583711809267
-20.707576252720614,0.2760382317282185,107.71657353547475
-9.788282968981557,0.19469706846994084,54.30709590465048
6.990799515960115,0.19863330090037737,-301.4008951122639
-9.92035450449572,0.2088723852607191,-219.55973267787203
-7.224601657192419,0.312886064115773,-1.995183096621043
-1.769331466250392,0.18950518774847758,-142.53750302193288
-45.51507316492507,0.1872844868864733,-55.71253226021595
9.843740915770672,0.11750356356826211,-411.9587515402082
17.116290013797776,0.1755542110661777,-298.536989326563
-8.341642659959012,0.2415353058198221,-191.9413298966453
-9.442013450703104,0.20074312547246206,-52.727067373347246
-11.36293315613543,0.1378961274056777,26.40168627136687
-20.81783689089187,0.20837172285638633,89.66294468914742
4.948168509699486,0.22194171857697037,-175.95790600109675
9.54530440628914,0.2045914694106257,10.051573698649682
-40.91543714807324,0.2213074074672906,-129.61968200342432
49.0100916475693,0.16045227635789186,17.429347766107426
8.616144075645915,0.16616242211024024,171.52483533134728
-35.682653542876366,0.11030610020317783,-103.04836854016459
12.138017231915935,0.18866783416626248,201.8161725398595
-25.57170808316881,0.13416197716137998,174.8805936904254
13.36750092823753,0.27184754707138,254.47377108581298
6.33932487590133,0.18569161747679194,375.0443429075713
-8.741602529323423,0.20038969446870997,30.40038033281362
26.34162725837712,0.18547368324983673,136.34654839926722
-4.416596265963712,0.13265348859595738,-98.97467616215857
1.5993865262814322,0.13920908885476885,-223.4027224049368
22.337533505125116,0.20949835822873097,141.47027478051794
11.361402911332547,0.24778298309316626,-172.30563209961016
4.546568421106516,0.23616200918440508,-390.89220887613993
23.21848192315516,0.28841019652816335,53.15825073654828
-22.112001567615714,0.15757503621417002,-17.001740174805178
1.5910517088029619,0.2610158205346076,250.99548101277384
-3.5726772433731058,0.2813893718666873,-161.02758967798536
5.216256503740997,0.18735679226286395,103.58386845734687
-20.761813440418454,0.15099531635728525,-38.00153114603976
2.231557235351656,0.22788818343018669,216.32208510048784
-7.104958187610895,0.2335166040793182,149.79458550774504
-33.728093729264785,0.16919938696398423,-240.0905430981375
18.28537974403592,0.25053991548287363,-252.79725033016462
6.700279865096668,0.26707124614760697,-7.900587670738238
-6.1371083908779935,0.21555290758791623,385.02535852230125
-14.507581995378088,0.20446086520458281,-27.122192977684833
27.771015167550487,0.22104822958379652,366.97197314904105
12.413424774349735,0.19139674720867234,170.99498513777317
-7.016566854629392,0.31064317268185676,263.82980418731154
-7.545683168985095,0.2366217105153821,120.40527578519817
5.9799231100924874,0.21468151068950775,-82.06897319521724
23.041704661651504,0.1903812794972759,273.778213410725
-7.0848741839906735,0.15221415396776458,-306.2897242445813
-17.42091533466708,0.17514795997360577,218.15580029596217
16.209987636078537,0.26437921257629593,-138.60056831350886
12.367578729707457,0.2298325647739306,152.79638298439443
32.17259922724813,0.20048093253372928,242.86448787706814
-4.738710048358578,0.19088222923090073,187.65458079133046
8.667918962249473,0.1869389653611769,229.66813116208183
-27.072790831908215,0.21547479185162413,74.93128389239918
-11.877743158299072,0.17980831282629972,-53.24445380045489
45.43204919796892,0.2265497420568891,-217.7952183104925
27.20578391203948,0.21851118092767025,238.40513795453657
-7.099385814398275,0.13939695562820864,442.93907433141834
-3.8666102176436885,0.17411442131277866,76.9270852800202
12.733434767193224,0.2205047868083875,-321.80562769383664
-26.762920460989832,0.24409904264362522,-37.084145288655705
-14.467302781373286,0.14261120874433042,22.50738326386435
10.95423011098054,0.16871878339431726,-13.43586038833376
-32.047672678681316,0.12805761070999722,-349.5004565264804
-18.77359135238878,0.2300150604313485,268.0830624679837
-7.446858297803444,0.11165414477455744,136.48981695044225
-11.39631310727694,0.13511660620327492,-507.2907522691785
-15.508706266057397,0.26491508697339217,-143.66390531217542
-0.7103398861631041,0.24688626801661012,-260.3036667457832
-25.68372908099135,0.22921348077959325,-411.1463905240713
-26.204121720661412,0.16235692192455217,1.466047372569102
44.84330032317729,0.19565576701308973,255.79035637422422
14.135240281113157,0.22183105965416564,-216.1815909535
45.24006544025003,0.20871710064219723,-357.95229452980584
-0.782175815210207,0.17734969997291206,-388.6307266500522
-25.740967707183422,0.17110527416962734,45.11131729890024
-20.429430028018395,0.17983905203489425,-29.18803411283082
-9.624922718768602,0.19859420166547218,225.91478902794654
-13.77509479546902,0.32301929376025007,166.5364745639943
35.65626846802625,0.18792052619147356,250.1523054062622
6.143900906492941,0.21911614245803823,-128.298885967355
23.511269596693445,0.1898486332670701,-99.92747919800169
0.4773690696624526,0.20233390655802883,35.175919646242285
-11.337674475538044,0.2473922893230147,-180.37925778300456
-7.833180925899718,0.1672044453046091,296.8415599936276
28.251387553268547,0.2711701340749325,28.968620800344482
17.878308818377256,0.2745662796591988,-493.4349990892546
16.700960275542176,0.21962673415689088,-212.91911420245322
30.272448539918464,0.17673011654266943,33.33387625363461
13.386327032305871,0.2213001988263171,-148.67613305006154
-45.30272504433314,0.2516276374617993,75.99116856470583
11.4229545593899,0.15393004784518852,-334.49752164056935
14.46507697348433,0.19931587051128316,23.24834883643356
-7.440709553091812,0.24446512303886522,380.2806789795746
-19.86378770411602,0.13270438104956211,-118.66419042382512
-11.827510670538086,0.17986718551596595,121.14196650792739
-18.95040579245003,0.21507432793792608,10.309094321016403
-27.099381399279302,0.09190159373421117,-14.735680012104716
13.035867902902236,0.20641107219628688,350.77037418589725
21.71594196505857,0.2804456280943419,52.23110797298892
12.208646834680358,0.3200144512971133,-176.02488368009435
22.996756850084456,0.1972025288654496,120.68746779230572
6.3458386695218305,0.20775496616056052,-58.136508709296066
6.285657612141647,0.2150504126081612,-176.4837104358097
-14.851255582105246,0.138655073950021,-6.539591797158002
13.733230566175585,0.139575779645818,-150.93945002778648
-13.122373582608606,0.2507009418914214,86.26175179866522
22.290263247674122,0.23123016443240996,-180.05407848027738
19.865636439859802,0.20697279850276828,139.16580935315713
-3.7348581040513587,0.23391344443311768,276.0754284406008
-9.72790951226379,0.17447151887153342,11.646190886410658
2.3616758909456506,0.13793564026463717,-110.56472244640332
15.996061079428214,0.2232171900855323,-138.79510327921756
4.738038115187785,0.11121657417134899,114.90005509957287
-5.761523756539969,0.19360213883045244,308.96872419062
17.198389274050086,0.17963726002608352,50.34792503305706
-21.3786562903212,0.20674149738594758,-248.10728973874396
36.556685481600915,0.12998178015533252,23.4028507985185
-35.80382343374798,0.21899166642376722,137.86431288127721
-44.50235244755311,0.24594497764542267,293.34142031038965
10.572048862886694,0.13089642967898146,-30.497716888436216
-15.449324196357345,0.1866590352156966,-45.62314226425306
11.375309571548577,0.19183312538438693,29.726074344598764
7.016992860027303,0.20165789475432844,-89.80641460642005
1.7701917844590724,0.19630394321513822,-28.105466840607953
-4.557720580020961,0.21196358694108788,57.43704185385621
20.585154481652452,0.2063004185840498,216.5824194662114
21.71337573308927,0.09093332121715361,4.4212937302452975
-26.287930894947458,0.18224798923119828,96.32566251019809
1.2403037626177926,0.17537643229701153,145.9272170351214
-0.6597410457017739,0.19624641691017408,238.1138064159267
-28.55514593947047,0.20199941265176846,-162.35312045791298
-2.470776109758779,0.15013235426766824,271.1718446756855
-9.948441015055913,0.13612312935349313,90.63889702996417
-6.1947030749086505,0.21764709470307736,-10.806086487845329
-9.29954528056407,0.22460118314614014,-55.968339740428775
-37.11985583310905,0.20561755512431318,24.608022463201785
-11.313474689429393,0.16167718850663385,-175.94908890974042
20.16770448505458,0.1841057930607914,-334.8562083923557
46.18590274942794,0.07495233540595087,-224.75746278399512
-30.505064242191654,0.18984919174341486,389.2360035503588
-18.19622037293749,0.20168569507307207,396.4236408777306
10.856794346368337,0.17399273476132046,-455.8000372802304
4.385475031064999,0.26489001453803585,-77.20438650057571
-18.569215423408032,0.28195058787504423,-249.79593901069248
-46.93604227290473,0.20917564039619854,22.737692246984334
29.72930176529762,0.1727367296633396,136.93003104446214
-24.795796061336134,0.20318404648234326,-91.97599920430179
2.9227135494888694,0.18836318432933732,-422.0767718346799
11.610928268226758,0.14044767521851964,64.51808648051352
37.37929010156765,0.24158746244955992,-105.12615238119993
20.45904323051756,0.20721348930692407,-125.09767860556809
13.710943800684836,0.11163733981530628,155.62694172470214
-8.853722551346456,0.1982735261570214,166.1082445439847
8.922563947439002,0.18489101983723435,-176.7887995930941
7.3663707697986345,0.20105642229609977,-370.09168721046996
-24.54835309771049,0.13065937301952285,139.25042114280077
6.924947363216104,0.21003674841399578,-305.5542061466442
-34.16225263610846,0.18064009247164817,60.559598029174
-17.343531383243487,0.1866261099594305,-27.929555583733105
-3.5123066694831593,0.16509987598670825,-42.9765495490502
-1.854279131302695,0.2326873935634176,-169.52472795685244
6.695088557164915,0.20098736418866545,-184.21361052027652
37.5375250803678,0.196630450064972,126.57080195051766
-12.291775840328045,0.21655550423961784,-20.547280769214556
-6.071133744711434,0.28554978364678535,-161.44293630280583
-12.599343537503355,0.23116100273315898,146.80735746903736
-0.3615482360756418,0.22610786403062505,138.04033412497495
-5.007032924065339,0.15706977683981335,-149.51853679928365
37.75134278198472,0.1785856305756394,94.71361558996806
-14.046506113109443,0.1287053787060825,-19.37441566194959
30.063847346435125,0.18871821298168598,110.4113299538456
-6.795818781616195,0.27272616876847966,-1.8177472914537938
-10.049740479324083,0.1712015625009137,-185.7149390834435
41.541290741018166,0.11240034042351811,76.46238526794741
-2.7809802010997737,0.1553654977631453,25.826405327834006
-0.4582569189571644,0.13155713255159762,-18.403603748357565
-15.51331747471318,0.2125007849905139,78.11803160767535
-36.62653890148461,0.2199033153958863,208.98528558427012
21.338543465974702,0.17310431708544338,-232.95768269243084
14.84646198016162,0.17826346700662954,106.00126465111563
28.916849268651767,0.25329284559257803,12.833406749529304
13.855803000168754,0.22217213750898426,-190.9386101004653
4.216914622773806,0.2020579512543627,54.35983743633601
11.530659482220846,0.21747539469952357,-136.7408244272697
9.421675600554094,0.20329264515427767,132.66986555216073
9.817699206897851,0.23864150927344485,19.952223020040776
14.044747932181824,0.13599770846895337,-16.93784714958103
-11.170725754498958,0.21758605781627252,-34.14155561867533
5.335017699879007,0.09760640958553977,-276.02492760893347
-51.24447906788353,0.19794540123056786,113.75276562640377
-3.1361194208359966,0.20458950308629428,21.43007139350962
-46.473834293413105,0.18325860113016604,149.38789984534762
6.055699584120128,0.27197328973059043,146.7220257054762
9.208691207732114,0.15627130198697428,37.17588124286438
0.7528765447223327,0.1683858591616405,-116.67067427306641
25.469861007547276,0.20913021692500372,93.35364147848753
-9.309238682902416,0.15004270337802428,-265.6542531485456
-13.629448920758428,0.16286032479067125,-198.53854656904068
-25.199128256407278,0.1999683268140825,148.5826112368602
-8.231290925157069,0.18389380760924845,-241.51585137403112
-20.44259892024025,0.19639938338222412,-252.43172390694158
-25.536717778186407,0.22039444735526786,-50.12309391264965
22.860694771156677,0.17443234816961437,0.03821169471878521
33.0936680058066,0.1451006372953544,-179.18015171247072
-18.320044861855088,0.2067326278513914,47.162945880659066
21.92604789019866,0.2082390411356793,-91.71886108918773
-29.05309137201804,0.16180822131062406,348.28335876400547
-13.459681164097274,0.0983670944046446,107.21019359785211
-10.007540968042205,0.24922280695310658,425.27417283282887
-6.816143739166355,0.1652914842077235,112.35344927763207
51.301486369374615,0.12520768046078884,237.29195006892297
-21.295942898353783,0.0775684158178166,-258.84027358582097
11.81457386025041,0.3045074929916525,-119.01698958727613
19.78721828659498,0.22185630209296178,-253.3913114301654
-36.24120827284049,0.22362871673892876,323.566694656428
-7.74846219471182,0.1716023052209248,-11.856529899745427
-8.361389693492006,0.29542417840998647,-156.8311956587512
12.989991554755097,0.23617271407920998,218.6544415181162
53.72055526707364,0.19792266501152866,-219.90912629576664
9.485426585237972,0.17383856747920334,60.689337109750205
-1.021820526416987,0.12030755973601526,-37.224049345675
47.80015606097859,0.08914569245884015,200.96378115634272
-6.720274289565957,0.1744687479853926,-350.5752097745987
-32.556185079690756,0.21295565432014707,-186.67716787156806
-19.036812132135154,0.08494200520043008,-105.5998357816277
32.01226304526752,0.1828602480146108,328.00014609795005
-12.14733512271049,0.24838484859090415,-147.57459934665536
21.15656948480251,0.16379420992713156,-55.47826994342333
34.893452939993075,0.27118690934765016,-143.90267196908383
2.42120168927572,0.17283802827457972,-21.837309742947408
10.837875715264778,0.19981315910174072,232.83060586791015
-17.600059277778694,0.13120203966393545,-152.13555051724364
15.936125324770394,0.16880427325371017,-66.77868044057664
16.230650205560398,0.1462784612321555,70.7357619259139
-28.207007725811874,0.17770987679359376,353.0350341862435
-8.704856309363414,0.21083503650621194,2.587186823961567
-49.869963041931385,0.20521288035098587,383.3511503687406
-16.225237008957954,0.18868609639288228,186.55742852710767
6.753943914407891,0.2512543750894835,46.75992092498179
9.565315149655758,0.18773260500138503,-428.1600856366175
2.8495155366429614,0.22838664699081518,-173.56296662858094
18.81973862333624,0.14055363224555734,152.67469485708153
-11.435019865975143,0.20111821434512955,190.306286090278
5.2656432136814395,0.21526569657079778,-54.72167720540284
-24.024818135206708,0.1990946184379762,42.42427135742421
41.833156320020144,0.1856794011844394,-149.03215681324596
18.890574115516202,0.26874998877953155,184.05521594051882
7.645686954662199,0.20122695180827652,31.52425217924214
3.844769976997844,0.2745635331685098,-59.9160588886691
31.66078798630857,0.2687822404891856,61.32276074932697
12.077226994562842,0.2127977616837736,-246.1176149465869
-7.2673522301269475,0.24510149457444722,49.048522048199686
-27.010971171393244,0.13981546962856348,-100.98627975673612
-4.93277805235871,0.2417775353328954,-127.14522271716442
5.107960090516775,0.17618009750917762,-59.52341250892464
-9.534514715515364,0.27028183528348126,21.523470228218155
3.6049238564445014,0.26968747401731613,27.03973400396538
-39.15276404161253,0.18752351611687457,-163.21751462981788
-17.871001318226934,0.23341565859916946,285.57303239253275
-21.66066067275835,0.28353522974291906,-381.63284984293944
-18.52729450965413,0.0787091325658665,-142.60865758740667
-4.577360677476517,0.1794263833448178,19.12422724623357
-14.33599277208717,0.16385222743259306,-6.062775153927178
-0.5538751840324414,0.28902784289019734,-242.05052472719993
38.311904993362006,0.26297777260816946,144.21080553193406
-21.33551151615695,0.2020580813392258,8.095831691922424
-5.138010493720822,0.16423967573192585,-66.74720444699255
22.2050846658273,0.2373974694042934,-47.116115295639766
12.636080901976662,0.2421534906384488,-109.60634842193377
-18.65389854998937,0.1494080771276397,123.88920902356708
-2.730511805576713,0.14639660277859098,115.28017998730904
8.220952842539495,0.16845224666173633,174.90817820756942
-24.072254277712922,0.2116675968739153,157.1295374415427
-3.9735518225709003,0.2734544974733331,-102.36056297421811
4.27632710229491,0.2847376886523372,-461.9419217365768
-9.817643702625649,0.26157000780183015,321.52235720567774
38.51531252858981,0.19649731504253592,-103.5195138600077
-14.756622775731449,0.18834784676916336,-166.1130616674215
-22.308819712670513,0.10236743105041746,366.7338391929205
-8.527286772409758,0.22845732587916925,195.96666633104832
29.179773387004694,0.21677273862742935,-460.31340442550476
-34.64772456050603,0.14061029481567588,-81.91337964137564
-11.063785597609847,0.24217823026361807,-200.49571200729295
7.130566569846589,0.17320446449833693,-53.33481518407945
7.853247120789224,0.18480754298635685,179.29342850772576
-27.36137676143742,0.19887313940442447,-205.25244218342218
-28.562648275767263,0.23592889317352617,72.57658489897216
-7.202880436153334,0.19476695046030237,-230.00452706054074
-26.449074597306637,0.24174841539879888,73.25834504585399
15.232123053941146,0.23574956810259498,40.9475030371096
-38.825279177250266,0.1954258058985376,-106.20601862703715
-0.24397155406554805,0.16384347435656435,68.79513990311075
0.1342869832141883,0.17657993611449938,50.451261841731956
33.44138724821239,0.13295434720644272,-86.21743330093
30.455365921302004,0.23180244895870417,202.26613217273348
26.590908208072612,0.21432861118685698,-10.23285060744124
0.00678927189242068,0.16525279566374634,82.21376783150714
13.21862442799511,0.21536371408351002,266.2642545208756
12.14592554288277,0.3011745559563207,-32.867438071599175
-34.605106869545125,0.23806278513791745,-124.21684726335609
22.257152725676953,0.1795866115019295,63.02640199957599
-15.573009297936498,0.23338685359090622,64.92425370533525
-37.826684551187604,0.19440671556172914,129.81872554225308
7.016130560372266,0.1831888089889087,-94.84326191135204
-16.032922478767286,0.2230357346178315,-195.1575841284259
-9.745638241173374,0.25391264368681526,-339.4508997677198
-45.04084446925028,0.12395875222246332,-236.34893946263068
-8.797361790297462,0.09661944657652527,106.2863905818537
-15.572350554730313,0.17443692937251173,351.5785248503436
-4.049505805869885,0.2168178491275339,110.85248644894263
23.59994932550464,0.19871181015352832,121.18621546868509
7.632157333899885,0.2534793481938673,112.71977652857237
-18.272096872315593,0.22118006606992302,-173.81641332483156
-17.49083610870555,0.24570622463932582,-170.54598099406263
10.611070433746503,0.2052127548987056,-51.76125271911805
-6.100372331139385,0.1887070933150041,-403.02895668911543
-24.91399663832292,0.16116173468863362,237.9659846220904
4.7226795807978785,0.28657277192969827,202.22239223759212
2.2036050703177574,0.15027215140382305,-380.6956845303217
-22.742015634426128,0.11813982270216111,-274.18842795194564
9.693409762555206,0.2845569509501512,-445.9361421282266
7.0885468497266135,0.21427397700813064,-269.75597688569917
8.043213249574336,0.2180598508375108,-249.26845551212028
-0.0679508355343689,0.19798956743887958,-348.58081347383217
-25.51890517480261,0.23924699482412504,-95.81475248835169
-5.972659925821202,0.15421762603617786,424.88571470178255
-24.100055845239567,0.15780820192341838,-242.49532566377349
-10.039052552558704,0.24906936001002192,52.13286649848337
-39.82564528310738,0.21075472016217053,161.11889581127207
-9.094998602010685,0.08756984355047495,-32.01195767730712
10.38208906592841,0.3222806237565754,-245.20982392646283
12.379925948466465,0.11818936668795407,202.0709342368292
28.610081999193962,0.20198183267584188,-82.96345446686095
-22.199289417676916,0.1667668894493324,37.16869858443344
14.247814358744321,0.132107253492588,156.28259584842493
-11.903114619659465,0.19106255416031698,493.9308815562411
29.45350685361334,0.2566753326405702,226.82796798615578
30.982786105019706,0.16233469270686657,-157.45313069706722
-4.267550989907426,0.2522627893294737,-61.78501852685634
7.3286108488518735,0.22446410101388806,351.6223347912629
-28.884056999232914,0.09432674721008182,156.09295470604937
27.341961789313398,0.214874757255463,114.72141724736143
-10.877139966720037,0.2176582461932793,406.7780385146103
19.561183997779136,0.15042545626442275,411.5454235483316
-10.444242419037252,0.2219443292187829,308.6998625959463
-14.820583532939033,0.1882694484444667,89.59428229977081
27.435495185392472,0.1948970280357395,68.81908004467302
1.6824741042522595,0.304200584832473,-20.692441489789704
30.15855743401966,0.1702304351437015,233.12270494207087
12.246937085054338,0.13864901185444412,-86.58048852864069
28.522593297738517,0.1484877761872458,-328.3455634818742
-14.666458738152926,0.14352434046503548,-136.36818366190994
21.953055964800654,0.22923164990473302,99.59852594468697
27.625810670857366,0.24913580399092977,310.6937029928731
-10.399994703695617,0.19192833670844803,-130.51386153342085
12.153745430477358,0.20094309696010185,198.69595224800514
23.891916729163434,0.2569965505295008,-218.12679190852137
14.685429098391298,0.15453783974080987,79.58872551870904
5.741893170513626,0.15121454683447516,-396.7639746181632
2.771300389683922,0.22187185679595908,-163.26356519984196
-4.193960159004359,0.19134352185583356,-264.54628517281606
-20.958926967607006,0.13506415029072197,-374.79848553282704
-4.673731373960651,0.10773817565441002,143.83973160071167
-15.551107419383165,0.1676986069957695,280.9635871750485
36.92230809484854,0.15473540492085347,116.27880190716564
14.787054541136921,0.24013004041317376,-33.89202000150633
-27.757864911308822,0.2124792059123393,-399.66130060712595
17.406029795192133,0.1944601670893844,-303.27192040018963
3.86877038254918,0.13025463479783012,444.4610102220947
6.603492921702104,0.19799881535565275,210.07958028747967
-19.826323150070074,0.2375418942985475,133.12359241273407
14.163373206736399,0.2812782729548716,-324.1062622134638
-2.726758741751036,0.17749040809572414,127.95763023507077
-10.630975739840185,0.2182409145223162,-96.97560976431309
-2.0258736228269476,0.21383414858651345,-14.402913361398129
5.266103021450918,0.13707584226216185,-140.80047894933026
-36.07520679271354,0.18090474759861483,110.80505858480039
2.2681462395547234,0.2041650338819431,-16.393825177878725
-8.261200501098793,0.19452940287147374,-382.62302052222464
-5.376197969218087,0.13450971396971692,95.11679614941028
4.8717083590946855,0.16168388234333952,46.695487662761956
7.500040934938784,0.10979412879562689,-55.76354181631039
38.6132955740364,0.16581010820960027,-2.8860095532356507
1.2026095101963676,0.21472416178523568,124.47530307313335
-34.48090793917398,0.1747666149309501,97.5132830476352
-25.493700889787707,0.2189009520216523,85.25376344779293
-24.426899262422612,0.17495650595882162,-342.4861112648374
-18.218317868755765,0.1945055349127028,113.29357072148396
10.252783826117433,0.21850268936916958,-432.1942306762422
21.785083036176438,0.1612675899949991,-154.80059171031962
-8.554779795456257,0.22642866387500124,-296.1890065942461
-24.04199793413344,0.2078044930430075,-24.968286626184756
16.70020407577308,0.2054517787278385,-283.2755934297091
36.953461507863395,0.21120012075635836,198.2189811045245
4.074528347240763,0.15943369738160446,-171.80899671102415
2.5674302413417927,0.14713334223694283,-83.78175505354089
10.684657584225137,0.18058424334135334,60.23334044992177
2.0920620156935383,0.15498457654665423,74.55917857494185
9.865433566371909,0.248944367925738,32.547183070696526
27.402578812547624,0.2490379355721855,-19.641598833871868
-20.727906620365594,0.17882339890708812,111.90502797793027
-11.32250936138477,0.14839352819040458,28.633091781475066
35.861409254717046,0.2769717517906682,479.33833616707034
30.85107521171625,0.22076399766706167,-2.00089313410174
-20.22148221312634,0.28062995103384897,216.26664594511755
-18.421883149738388,0.10486736398560559,396.2295396478934
-26.49835883763716,0.24951523806225107,100.4072948155729
16.47965036996268,0.22914714916713977,71.4707651917842
17.103144578301535,0.23404966519650972,-35.86851302462482
-54.51656373615168,0.18209199412208832,-189.5991990771922
11.01692641141976,0.23218357142606846,46.6265948972862
-7.154642286683127,0.2771146364543675,168.6400203887247
7.6103168693720775,0.13518052135901115,-146.5884766177548
34.95242665024023,0.2014109004507837,-40.04430706084501
3.1114377041445476,0.20188678589317094,89.15066715082347
17.095041380912697,0.14899103776210287,177.07407230943124
-1.0907594451876137,0.16832808084088283,161.38334510195114
45.984718734814464,0.2884986810024497,-37.55709890681779
-8.512338098415897,0.15818509797080532,48.75532672818384
-0.8525082020424356,0.12262950804968742,-313.4285670066193
13.877609201025097,0.25972424875451205,-278.80129776141456
-28.910559705544344,0.3220262731914174,-218.0997424805426
5.534758170727791,0.27929873874958894,-60.379756678048444
21.519336090398046,0.11498696296449423,-407.2888042163
14.427875993441493,0.18473949309470378,-50.75945231452113
-13.68803882668753,0.1660427723341143,-249.78382178331904
-4.19942126283604,0.26694092620049925,163.93410137708997
5.29312252494492,0.2757220483368223,-69.05439391341987
-10.742131224896664,0.12430676015959174,-101.3982950438016
-36.02388882841752,0.2442183609158878,88.28221718930989
-17.353828375214825,0.2070808079864377,-139.30221286861462
8.26923719814287,0.22734803777551202,305.7079457704274
-16.093646506380242,0.23379364167936026,-189.76599575276896
-12.804756529398082,0.2602674737833691,-214.68874729290377
-8.321914297533267,0.1474308622453996,440.3594097211575
2.3139855095778965,0.08903467762011666,252.85644775034814
45.0079107001291,0.2033167042777507,-133.42044437488084
-15.655983937710825,0.13372009769612508,-126.38252409607193
-9.310035582456372,0.15389978786933328,-176.27933860434223
-30.904965710158535,0.2158614378021874,-83.0720118396672
-24.284509487051874,0.32235380381980416,-306.4661264659968
-41.906566839057646,0.17715500969875883,-252.1697958648507
-31.975107246713122,0.18501770395369377,-204.52558606471632
19.60550501748974,0.17227170470821596,178.89856699068937
1.2198689232321502,0.21461439518897962,225.45679671099816
35.21609026632052,0.2920916020456361,203.86671597057946
-2.434466382068597,0.20350857554411136,-250.88450767639924
-8.09465315251261,0.2160441632354299,9.950268563358499
-7.551231595342385,0.16208961069454852,-60.61352343916434
-11.37450263002137,0.18750403030856927,138.05373877301363
9.120212747034698,0.14641520085529833,260.8201397010662
28.205660394985735,0.19488704518619268,-272.6317072430336
21.8058064289434,0.1714044519722601,47.60407253532401
