-44.83205183926179,-35.64300939945523,-22.137911551945084
-44.76228241624058,-23.74182335098345,-22.278646118844815
-44.69207120756318,-68.9673721032896,-22.419160804501622
-44.621418906185895,-72.04155024980673,-22.559454222092253
-44.550326209418394,-66.60228568169731,-22.69952498697733
-44.4787938189169,-2.628627729636222,-22.83937171671498
-44.40682244067723,-59.235604212910744,-22.97899303107439
-44.33441278502782,-33.088744405604906,-23.118387552049597
-44.261565566622764,25.464008949640196,-23.257553903872914
-44.18828150443467,-49.65483750718671,-23.39649071302868
-44.114561321747665,24.927278002130414,-23.535196608266627
-44.04040574615017,-38.366593683001085,-23.67367022061562
-43.965815509527815,-39.76347850007489,-23.811910183396957
-43.890791348056084,-66.64006292114311,-23.949915132238043
-43.81533400219318,15.932080559378928,-24.08768370508577
-43.73944421667264,38.88122067240277,-24.225214542219895
-43.663122740496,-83.29160728989977,-24.362506286266623
-43.58637032692545,124.17459367064495,-24.49955758221183
-43.50918773347628,96.55591878396098,-24.63636707741459
-43.43157572190956,31.171784451726108,-24.772933421620376
-43.353535058224494,-37.433536554809336,-24.909255266974554
-43.275066512650945,-61.95381697100814,-25.045331268035497
-43.19617085964177,0.09974777630657988,-25.181160081788036
-43.116848877865195,3.3675156487928213,-25.31674036765663
-43.03710135019718,10.20130257943299,-25.45207078751856
-42.956929063713616,72.03552798047012,-25.58715000571726
-42.876332809682616,14.167228233607839,-25.72197668907532
-42.795313383556646,14.721522193244029,-25.85654950690787
-42.71387158496476,-8.898651071435294,-25.99086713103548
-42.6320082177046,-36.95055040581536,-26.124928235797455
-42.54972408973459,33.88246213848301,-26.25873149806479
-42.46702001316583,32.07621255717487,-26.392275597253317
-42.38389680425416,-19.278336047419476,-26.52555921533671
-42.30035528339211,-98.93276200894596,-26.65858103685943
-42.21639627510075,95.4958755273843,-26.791339748949838
-42.13202060802161,-18.512083536794748,-26.923834041333013
-42.04722911490845,22.194997968646533,-27.0560626063438
-41.96202263261908,-42.26757267793884,-27.188024138939625
-41.876402002107085,-38.87476528557149,-27.31971733671345
-41.79036806841351,-61.977128969943884,-27.45114089990659
-41.70392168065856,-4.668608923290952,-27.58229353142151
-41.61706369203317,47.4663963364951,-27.71317393683471
-41.529794959790635,75.7379472073804,-27.843780824409397
-41.44211634523809,-13.038515441227442,-27.974112905108356
-41.35402871372809,29.457486314442715,-28.10416889260653
-41.265532934649976,-39.881045252336094,-28.233947503303863
-41.17662988142137,29.99164415700008,-28.363447456337827
-41.08732043147951,14.514981003902788,-28.492667473596185
-40.99760546627261,-24.865404092651474,-28.62160627972955
-40.907485871251176,24.33221100016406,-28.75026260216392
-40.81696253585919,17.642112931353417,-28.878635171113388
-40.726036353525465,-43.69540824495253,-29.00672271959247
-40.63470822165469,89.46749535035353,-29.13452398342881
-40.54297904161867,32.81856519018176,-29.262037701275506
-40.450849718747364,30.246403524034076,-29.389262614623668
-40.35832116232001,87.0678909372576,-29.51619746781473
-40.2653942855561,21.90755580424961,-29.642841008052955
-40.17207000560637,-69.87984605708503,-29.769191985417752
-40.07834924354383,-76.74752042757306,-29.89524915287594
-39.984232924354515,-53.28080976779336,-30.021011266294213
-39.88972197692855,-40.981781374343626,-30.146477084451234
-39.794817334050784,48.10864175995064,-30.27164536905008
-39.699519932391766,-29.01617900587708,-30.396514884730273
-39.60383071249836,-89.6818305453602,-30.521084399080124
-39.50775061878451,88.20685998385528,-30.64535268264883
-39.411280599522,-86.29989280845304,-30.76931850895857
-39.31442160683094,-114.02601303137178,-30.892980654516723
-39.2171745966705,41.45146783651241,-31.0163378988278
-39.1195405288294,-84.88359527140945,-31.139389024405634
-39.021520366916484,-22.16040064458538,-31.26213281678526
-38.92311507835116,-48.63354076348156,-31.384568064535035
-38.824325634353926,-36.6821720870077,-31.506693559268456
-38.7251530099367,-8.809820807757516,-31.628508095656223
-38.62559818389322,-35.916947651466536,-31.75001047143804
-38.525662138789464,6.869772306863925,-31.87119948743448
-38.425345860953826,97.7760568953352,-31.99207394755893
-38.32465034046749,-8.171747902480941,-32.11263265882922
-38.223576571154574,153.7876290378228,-32.23287443137958
-38.12212555057239,-2.5203563666332376,-32.35279807847222
-38.02029828000153,-45.66966302775653,-32.4724024165092
-37.91809576443609,60.67946407258319,-32.59168626504394
-37.8155190125736,57.00988364080174,-32.71064844679305
-37.712569036805185,-0.26352904979227654,-32.82928778764783
-37.609246853205576,-47.76983124542465,-32.94760311668584
-37.505553481522966,73.68419065375964,-33.0655932661826
-37.401489945169125,25.267485114703575,-33.183257071622926
-37.2970572712091,-77.06035510380435,-33.30059337171259
-37.19225649035125,-13.262792142452104,-33.41760100838965
-37.08708863693697,25.918561367650085,-33.534278826835994
-36.98155474893048,-51.70616868760046,-33.65062567548867
-36.8756558679087,-98.42629832019429,-33.766640406051216
-36.76939303905079,52.443542624387874,-33.88232187350512
-36.662767311128,26.914345239592812,-33.99766893612096
-36.5557797364932,19.41711269951346,-34.11268045546983
-36.448431371070576,75.87167361057654,-34.22735529643444
-36.34072327434513,50.649542273789315,-34.34169232722042
-36.23265650935233,-61.59574668040765,-34.45569041936742
-36.124232142667495,31.708812430906285,-34.56934844776032
-36.015451244395344,-35.35949137795254,-34.68266529064025
-35.90631488815944,76.13468408019192,-34.795639829615716
-35.796824151091556,32.678790819168356,-34.90827094967364
-35.686980113821065,-49.39130580289785,-35.020557539190314
-35.57678386046425,56.63922561182019,-35.13249848994246
-35.466236478613695,-4.287652388900857,-35.24409269711807
-35.35533905932737,51.026264202961016,-35.355339059327385
-35.24409269711807,51.47696490445489,-35.4662364786137
-35.13249848994246,-17.055567046828564,-35.57678386046426
-35.020557539190314,34.38189770556652,-35.68698011382107
-34.908270949673636,60.70268962028506,-35.796824151091556
-34.79563982961571,5.546072122110938,-35.90631488815944
-34.682665290640244,-24.15768158120147,-36.015451244395344
-34.56934844776031,28.293589280590712,-36.1242321426675
-34.45569041936742,-134.5613048355615,-36.23265650935233
-34.3416923272204,-56.29226821423785,-36.34072327434515
-34.22735529643443,3.75950356456212,-36.448431371070576
-34.11268045546982,-61.23397297595922,-36.55577973649321
-33.99766893612095,15.689008440938528,-36.66276731112801
-33.88232187350512,9.5300113339772,-36.76939303905079
-33.76664040605121,31.080562966536533,-36.875655867908705
-33.65062567548867,20.121535422168094,-36.981554748930485
-33.53427882683599,-28.437911405857243,-37.08708863693697
-33.417601008389646,26.36262240228608,-37.192256490351255
-33.30059337171258,76.26544210519323,-37.297057271209106
-33.18325707162292,-25.919796162238953,-37.40148994516913
-33.065593266182596,-57.56307946569442,-37.50555348152297
-32.94760311668584,-3.6183408446277348,-37.609246853205576
-32.82928778764782,25.793527044821406,-37.712569036805185
-32.710648446793044,-65.16489868450192,-37.8155190125736
-32.59168626504392,5.203690683135118,-37.91809576443611
-32.47240241650917,66.63511219882952,-38.020298280001555
-32.35279807847221,25.573538685309906,-38.12212555057239
-32.23287443137957,98.05132226048022,-38.223576571154574
-32.112632658829234,80.45333588202487,-38.32465034046748
-31.992073947558907,8.29153117788221,-38.42534586095384
-31.871199487434478,26.59781928134843,-38.52566213878947
-31.750010471438035,28.109653143269718,-38.625598183893224
-31.628508095656233,-26.75438483326054,-38.72515300993668
-31.506693559268435,68.6998199678743,-38.82432563435395
-31.384568064535014,29.569072052059493,-38.92311507835118
-31.262132816785254,-40.67783135298815,-39.02152036691649
-31.139389024405627,-36.539273577408636,-39.119540528829404
-31.01633789882781,7.329198705845846,-39.217174596670496
-30.8929806545167,-127.70452037175872,-39.314421606830955
-30.769318508958566,-65.805389908854,-39.41128059952201
-30.645352682648824,-74.1586397418997,-39.50775061878452
-30.521084399080134,38.20926227580267,-39.60383071249834
-30.396514884730248,-1.1325929480893342,-39.69951993239178
-30.27164536905006,51.29540502432949,-39.794817334050805
-30.146477084451227,-6.357130064589266,-39.889721976928556
-30.021011266294206,48.285961391712036,-39.98423292435452
-29.89524915287595,14.98528595183011,-40.07834924354382
-29.76919198541773,20.28514664026362,-40.17207000560639
-29.64284100805295,-56.925973505743855,-40.265394285556106
-29.516197467814724,61.967725122155656,-40.35832116232002
-29.38926261462366,118.03760051958264,-40.450849718747364
-29.262037701275517,-48.96007190705173,-40.542979041618665
-29.13452398342879,10.104059448102245,-40.634708221654705
-29.006722719592464,73.77435281527347,-40.72603635352547
-28.87863517111338,-24.057371482591485,-40.8169625358592
-28.75026260216394,3.638456363701859,-40.90748587125116
-28.621606279729527,25.00279889416326,-40.99760546627263
-28.49266747359618,-10.106733052057667,-41.08732043147952
-28.36344745633782,-9.919453450803575,-41.17662988142137
-28.23394750330386,3.388667911372948,-41.265532934649976
-28.104168892606545,-28.62337418062397,-41.35402871372808
-27.974112905108335,-61.44264938734293,-41.442116345238105
-27.843780824409393,-55.27791093659189,-41.529794959790635
-27.713173936834707,-19.345269600764425,-41.61706369203317
-27.58229353142152,-54.77189969446301,-41.70392168065855
-27.45114089990657,-41.33494902880378,-41.79036806841353
-27.319717336713445,33.29954887383914,-41.87640200210709
-27.18802413893962,-29.38594426953151,-41.96202263261909
-27.056062606343794,-1.2425741426911112,-42.047229114908454
-26.923834041333023,-79.14445379839775,-42.132020608021605
-26.791339748949817,-36.009220319790174,-42.21639627510076
-26.658581036859424,63.60876887016712,-42.300355283392115
-26.525559215336703,22.109965301394503,-42.383896804254164
-26.392275597253327,-54.38003206351817,-42.46702001316582
-26.258731498064762,4.257176075001512,-42.5497240897346
-26.12492823579743,-26.882013827053726,-42.63200821770462
-25.990867131035472,22.681135204756515,-42.71387158496476
-25.856549506907868,51.364411912685014,-42.795313383556646
-25.721976689075337,67.05068869285564,-42.8763328096826
-25.58715000571723,37.83474768507303,-42.95692906371363
-25.452070787518554,42.913261706860425,-43.03710135019719
-25.316740367656624,51.353008442231186,-43.1168488778652
-25.18116008178805,40.07940633474053,-43.19617085964176
-25.045331268035476,-99.91455125768314,-43.27506651265096
-24.90925526697453,-89.07549742311568,-43.353535058224516
-24.772933421620372,-0.6010997740597412,-43.43157572190957
-24.63636707741458,-6.595144647694434,-43.50918773347628
-24.499557582211843,-84.83697971711072,-43.58637032692544
-24.362506286266598,29.607277485368183,-43.66312274049602
-24.225214542219888,61.30045718414008,-43.739444216672645
-24.087683705085762,38.595549918088096,-43.81533400219318
-23.949915132238058,18.129404763377156,-43.89079134805608
-23.811910183396932,18.505187316869574,-43.96581550952782
-23.67367022061559,43.725718731328925,-44.040405746150185
-23.535196608266624,40.74182535334857,-44.11456132174767
-23.396490713028673,9.398230172060737,-44.18828150443467
-23.257553903872928,-42.99389120522687,-44.26156556662276
-23.118387552049573,-21.615903186621647,-44.33441278502783
-22.97899303107438,47.0658311130393,-44.40682244067723
-22.83937171671497,-21.814775048263783,-44.4787938189169
-22.699524986977345,-27.09032176113656,-44.55032620941839
-22.559454222092228,-99.28569801258197,-44.62141890618591
-22.419160804501598,-1.9283822937404143,-44.692071207563195
-22.278646118844808,-52.379950434350675,-44.76228241624058
-22.13791155194508,2.6860796573638033,-44.832051839261794
-21.996958492795766,3.7744435590213916,-44.901378788030776
-21.855788332546624,47.50075959872631,-44.97026257831856
-21.714402464490217,-63.36220257613079,-45.03870253026991
-21.572802284047945,-26.756947939364363,-45.106697968410145
-21.430989188756424,-38.64065539980346,-45.17424822165174
-21.288964578253648,-30.0238379208152,-45.24135262330097
-21.146729854265146,-55.38115705490563,-45.3080105110645
-21.004286420590308,61.27179080342122,-45.37422122705585
-20.861635683088267,-41.64374167261175,-45.439984117802005
-20.718779049664217,-18.678510324809263,-45.505298534249775
-20.57571793025542,32.13434264837467,-45.57016383177227
-20.43245373681744,45.01913065907601,-45.634579370175146
-20.288987883309993,122.36819137097278,-45.69854451370306
-20.14532178568314,86.89201948838335,-45.762058631045875
-20.001456861863254,29.760673621227628,-45.82512109534489
-19.857394531739015,-72.77084657198183,-45.88773128419906
-19.713136217147543,-3.8650441010843064,-45.949888579671075
-19.568683341860122,15.614441205844015,-46.01159236829352
-19.424037331568314,48.67952354721855,-46.07284204107492
-19.279199613869803,96.8482952171307,-46.13363699350575
-19.134171618254474,89.20647354753046,-46.19397662556434
-18.988954776090054,27.36129764252021,-46.253860341722906
-18.843550520608137,29.71085500941163,-46.31328755095333
-18.697960286890037,-29.51859913838724,-46.372257666733056
-18.552185511852535,-74.02408171296547,-46.430770107050876
-18.40622763423389,38.434090014571545,-46.488824294412574
-18.26008809457939,-25.788395071384375,-46.54641965584679
-18.11376833522729,6.830196944130377,-46.60355562291054
-17.96726980029451,-32.3590366802591,-46.660231631694934
-17.820593935662522,-15.705957071931703,-46.71644712283061
-17.67374218896285,-10.498287176987906,-46.77220154149337
-17.526716009562954,5.329868282166181,-46.82749433740961
-17.379516848551866,-65.83183516068146,-46.88232496486178
-17.232146158725833,-32.28346389734912,-46.936692882693706
-17.084605394574158,-18.045033066467358,-46.99059755431599
-16.93689601226457,40.61180424870473,-47.04403844771127
-16.78901946962904,-42.47893478737451,-47.097015035439526
-16.64097722614931,1.4706156324972812,-47.14952679464323
-16.492770742942632,2.8981003177418554,-47.20157320705249
-16.344401482747116,-15.838900555119874,-47.253153758990244
-16.195870909907477,-20.672586455187194,-47.30426794137726
-16.04718049036049,66.10038721666434,-47.35491524973721
-15.898331691620527,-20.923955313372577,-47.405095184201606
-15.74932598276523,82.43442618738197,-47.45480724951474
-15.60016483442074,69.26487793787422,-47.504050955038586
-15.450849718747378,43.52437559758011,-47.552825814757675
-15.30138210942501,-55.0536591523733,-47.60113134728384
-15.151763481638683,-37.81349870265728,-47.648967075860945
-15.001995312063807,-19.11692282986065,-47.69633252836968
-14.852079078851748,-2.0580522440572686,-47.74322723733215
-14.702016261615212,1.958108388901616,-47.7896507399165
-14.551808341413572,-21.75158954311361,-47.835602577941536
-14.40145680073845,-29.90277806099158,-47.881082297881115
-14.250963123498806,12.952842289499571,-47.926089450868794
-14.100328795006478,-40.20576704316044,-47.97062359270214
-13.949555301961436,7.4657634649294415,-48.01468428384716
-13.798644132437271,43.589330422275296,-48.0582710894426
-13.647596775866255,-64.41155518390886,-48.1013835793043
-13.496414723024818,-2.074352046408524,-48.14402132792937
-13.34509946601879,47.01050257920005,-48.18618391450048
-13.193652498268623,-10.343005656247005,-48.227870922889906
-13.042075314494832,58.00862215367994,-48.2690819416637
-12.89036941070299,-19.37528237243554,-48.309816564085736
-12.738536284169117,-1.9189736390748768,-48.35007438812175
-12.58657743342487,32.26589696186767,-48.38985501644327
-12.434494358242722,1.4802483494431244,-48.42915805643156
-12.282288559621309,-35.31267719798517,-48.467983120181465
-12.129961539770374,86.67402027223332,-48.506329824505286
-11.977514802096104,11.04580750344827,-48.54419779093655
-11.824949851186211,-0.34782757810065856,-48.5815866457337
-11.672268192795258,-43.79525069205232,-48.618496019883835
-11.519471333829525,36.884864219774684,-48.65492554910633
-11.366560782332327,-59.42728625943609,-48.690874873856444
-11.213538047469076,67.5607444569296,-48.72634363932885
-11.060404639512338,-33.19952883074607,-48.76133149546117
-10.907162069827118,109.40211944489137,-48.79583809693737
-10.75381185085567,25.72650935858575,-48.82986310319123
-10.600355496102743,-71.78314382293493,-48.86340617840967
-10.446794520120562,-21.469692566362077,-48.896466991536094
-10.293130438494053,-84.96894611040243,-48.92904521627361
-10.139364767825619,34.387392251353845,-48.96114053108829
-9.985499025720355,15.612933497071362,-48.99275261921234
-9.831534730771017,-48.32502426803713,-49.023881168647215
-9.677473402542994,3.238674219805035,-49.05452587216671
-9.523316561559485,-27.31190023895361,-49.084686427319944
-9.369065729286232,-46.65910094869763,-49.114362536434435
-9.214722428116676,-29.63485690312876,-49.14355390661896
-9.060288181356842,-34.8278851610354,-49.17226024976649
-8.905764513210492,-25.44392294223014,-49.20048128255699
-8.751152948763798,-122.55960439096246,-49.228216726460275
-8.596455013970482,58.40368309383227,-49.25546630773869
-8.441672235636707,18.505859701087605,-49.2822297574499
-8.286806141405965,-50.53265604150642,-49.30850681144945
-8.131858259744169,68.49065022641611,-49.33429721039341
-7.976830119924315,-6.488995296332018,-49.35960069974096
-7.821723252011552,45.06991593005873,-49.38441702975688
-7.666539186848007,55.079995404087356,-49.40874595551403
-7.511279456037837,-39.31523166448564,-49.432587236895706
-7.355945591931863,-50.037604449416875,-49.455940638598086
-7.200539127612611,-46.65763828421766,-49.478805930132545
-7.045061596879146,-29.472678841907996,-49.50118288582787
-6.889514534231882,-12.305317722583236,-49.52307128483257
-6.733899474857619,15.563972127733427,-49.54447091111694
-6.578217954614124,57.94207211359809,-49.565381553475326
-6.42247151001515,-20.39287679658184,-49.58580300552814
-6.266661678215186,50.45081130187621,-49.60573506572389
-6.1107899969944555,-38.9933499031611,-49.62517753734119
-5.95485800474348,49.546042059938,-49.64413022849069
-5.798867240448071,-4.533278044724136,-49.66259295211697
-5.642819243674096,77.15216039560448,-49.68056552600042
-5.486715554552242,-18.97988504170089,-49.69804777275898
-5.330557713762983,41.14614592241708,-49.715039519849945
-5.174347262521124,-56.40312980291131,-49.731540599571616
-5.018085742560752,74.12895893026675,-49.74755084906501
-4.8617746961199835,30.711388331790133,-49.76307011031542
-4.705415665925698,-43.30000007244793,-49.778098230154
-4.549010195178488,-5.821998565195465,-49.792635060259286
-4.39255982753716,-18.863277751394214,-49.80668045715863
-4.236066107103683,35.30564777501626,-49.82023428222962
-4.079530578407855,-24.235531518804187,-49.833296401701496
-3.922954786392234,19.49400620819969,-49.8458666866564
-3.7663402763966327,60.72557803639267,-49.857945013030694
-3.6096885941430368,34.87797463763,-49.86953126161618
-3.4530012857203056,-103.77854895344693,-49.88062531806126
-3.2962798975688745,-0.5733014682368858,-49.89122707287208
-3.1395259764656602,-61.00452494263755,-49.901336421413575
-2.982741069508536,11.42796313222618,-49.91095326391059
-2.825926724101237,23.777023976959,-49.92007750544875
-2.6690844879379996,-4.244555502229774,-49.92870905597549
-2.512215908988464,18.636228458506675,-49.93684783030087
-2.3553225354821286,-9.614257936050794,-49.9444937480985
-2.1984059158932507,88.60103588274345,-49.95164673390624
-2.041467598925515,47.584481608700955,-49.958306717127
-1.8845091334967077,-82.00704251663797,-49.96447363202947
-1.727532068723604,-67.58428667856771,-49.97014741774864
-1.570537953906415,-3.9239180012641075,-49.97532801828658
-1.4135283385136725,-87.91267836219315,-49.980015382512825
-1.2565047721668494,-41.763833442461454,-49.984209464165005
-1.0994688046252405,1.7518005464849709,-49.987910221849205
-0.9424219857704037,-2.7887973343369126,-49.99111761904045
-0.7853658655910385,-3.816799203123538,-49.99383162408303
-0.6283019941676449,64.33943560723651,-49.996052210190804
-0.4712319216571802,62.29228951877121,-49.99777935544749
-0.3141571982779372,26.37638275167957,-49.99901304280686
-0.15707937429397756,7.343941591059038,-49.99975326009291
-9.184850993605149e-15,16.774150521345014,-50.0
0.15707937429400362,-45.693997474221746,-49.99975326009291
0.31415719827796323,63.26820078762907,-49.99901304280686
0.4712319216572063,-27.155887224686655,-49.99777935544749
0.6283019941676266,79.98717499759844,-49.996052210190804
0.7853658655910201,-9.624378469271326,-49.99383162408303
0.9424219857704298,31.089333687151676,-49.99111761904045
1.0994688046252667,17.230884135522896,-49.987910221849205
1.2565047721668754,78.09589329037505,-49.984209464165
1.4135283385136543,16.048433741046743,-49.980015382512825
1.570537953906441,-12.392442013872015,-49.975328018286575
1.72753206872363,4.108818433241991,-49.97014741774864
1.8845091334967337,-48.24534898878572,-49.96447363202946
2.041467598925497,19.33464469438934,-49.958306717127
2.198405915893232,33.99438281118963,-49.95164673390624
2.3553225354821548,52.98318750622357,-49.944493748098495
2.51221590898849,-112.69857389486249,-49.93684783030087
2.6690844879380258,4.151165898118613,-49.92870905597548
2.825926724101219,-8.574626902630383,-49.92007750544875
2.982741069508562,12.211161929383627,-49.91095326391059
3.139525976465686,91.81686580302471,-49.901336421413575
3.2962798975689003,8.205946223046249,-49.89122707287208
3.453001285720288,-4.245570229698863,-49.88062531806126
3.6096885941430177,64.19124672356267,-49.86953126161618
3.766340276396659,-66.87364199692236,-49.857945013030694
3.9229547863922605,93.39769389271167,-49.8458666866564
4.079530578407881,-69.30101636627246,-49.833296401701496
4.236066107103666,42.969695038476196,-49.82023428222962
4.392559827537142,-41.20293747919182,-49.80668045715863
4.549010195178513,-22.741792322232463,-49.792635060259286
4.705415665925725,-4.665589985108282,-49.778098230154
4.861774696119965,49.68221250367728,-49.76307011031542
5.018085742560734,-51.3738223848414,-49.74755084906501
5.17434726252115,-68.43496860459531,-49.731540599571616
5.330557713763009,-60.406256609105526,-49.71503951984994
5.4867155545522674,-34.25944771497813,-49.69804777275898
5.6428192436740785,-71.8723760680532,-49.68056552600042
5.798867240448053,-5.302142524971272,-49.662592952116974
5.954858004743506,-22.890042898064152,-49.64413022849068
6.110789996994481,-24.670293946680783,-49.62517753734119
6.266661678215211,22.13344356347747,-49.60573506572389
6.422471510015132,-24.036258601306805,-49.58580300552814
6.578217954614149,-49.48008121660313,-49.565381553475326
6.733899474857645,-5.5907403986259006,-49.54447091111693
6.889514534231908,-3.948575285582937,-49.52307128483256
7.045061596879128,-49.30050929611984,-49.50118288582787
7.200539127612593,72.15351260913707,-49.47880593013255
7.355945591931888,-65.44758114381193,-49.455940638598086
7.511279456037863,63.078070721384414,-49.4325872368957
7.6665391868480315,41.03694168711189,-49.40874595551403
7.821723252011534,-89.48909894113072,-49.38441702975689
7.97683011992434,13.959084245028277,-49.35960069974096
8.131858259744195,-30.020583635470167,-49.3342972103934
8.286806141405991,-30.06396105173323,-49.30850681144944
8.44167223563669,11.011678305573,-49.282229757449905
8.596455013970465,-9.252947473955025,-49.2554663077387
8.751152948763822,-34.11044691397116,-49.22821672646027
8.905764513210517,-13.30573854199165,-49.200481282556986
9.060288181356869,-5.51397632899723,-49.17226024976649
9.214722428116657,-19.791702119825636,-49.14355390661896
9.369065729286257,52.34561193425148,-49.11436253643443
9.52331656155951,-7.718125113483458,-49.08468642731994
9.67747340254302,13.008525486525276,-49.05452587216671
9.831534730770999,-58.736736197823944,-49.02388116864722
9.985499025720337,-28.109890631072528,-48.99275261921235
10.139364767825645,28.409518342298156,-48.96114053108828
10.293130438494078,-33.13699172758713,-48.9290452162736
10.446794520120587,-84.24613579155908,-48.896466991536094
10.600355496102724,25.47246182708817,-48.863406178409676
10.753811850855694,-130.11777254293355,-48.82986310319122
10.907162069827145,69.43821175427232,-48.795838096937366
11.060404639512363,57.679954281198754,-48.76133149546117
11.213538047469058,45.319438165921916,-48.72634363932885
11.36656078233231,27.830790162949963,-48.69087487385645
11.51947133382955,154.29094230579113,-48.65492554910632
11.672268192795283,-10.424318317487229,-48.61849601988383
11.824949851186236,32.94784743265095,-48.5815866457337
11.977514802096085,48.06951268202594,-48.54419779093655
12.129961539770354,49.26835890035004,-48.50632982450529
12.282288559621334,-27.468193619068867,-48.46798312018146
12.434494358242747,-23.34578617075635,-48.429158056431554
12.586577433424853,-13.59294848779919,-48.38985501644327
12.738536284169097,-17.428463412451297,-48.350074388121755
12.890369410703014,-31.255230963934334,-48.30981656408573
13.042075314494857,-17.799452323616645,-48.269081941663686
13.193652498268648,24.963993309253475,-48.227870922889906
13.345099466018773,9.170208157706552,-48.18618391450048
13.496414723024802,-57.86858078625471,-48.14402132792938
13.64759677586628,-52.6957844345207,-48.10138357930429
13.798644132437296,38.65795256750265,-48.05827108944259
13.94955530196146,31.681158083092146,-48.01468428384715
14.100328795006462,27.01735870587314,-47.97062359270215
14.250963123498831,-60.1771452167067,-47.92608945086879
14.401456800738474,15.739518863056661,-47.88108229788111
14.551808341413597,-45.09703076780006,-47.83560257794152
14.702016261615192,-8.629470345541815,-47.7896507399165
14.852079078851732,-62.35176330176594,-47.74322723733215
15.001995312063832,41.66069176809775,-47.69633252836967
15.151763481638708,-42.9881341343676,-47.64896707586094
15.301382109425035,-72.55388720453502,-47.60113134728383
15.450849718747362,19.631306609561882,-47.55282581475768
15.600164834420765,-51.15051222076148,-47.50405095503858
15.749325982765255,10.196847327886156,-47.45480724951472
15.898331691620552,18.219060985677775,-47.4050951842016
16.04718049036047,34.53887125687494,-47.35491524973722
16.195870909907455,45.45387219097434,-47.30426794137727
16.34440148274714,-116.37491296434835,-47.25315375899024
16.492770742942653,13.874596312458898,-47.20157320705248
16.640977226149335,5.199302183606212,-47.14952679464322
16.789019469629025,-61.215383219361264,-47.09701503543953
16.936896012264594,83.10102835430597,-47.044038447711266
17.084605394574183,-47.17296330742835,-46.990597554315976
17.232146158725858,24.033504320982445,-46.936692882693706
17.379516848551848,10.482051732354954,-46.88232496486178
17.526716009562936,95.98716558409104,-46.82749433740962
17.673742188962876,11.573054412125243,-46.77220154149336
17.820593935662547,111.27943598305858,-46.716447122830594
17.967269800294535,100.71939746109403,-46.66023163169493
18.113768335227277,-60.57711956704184,-46.603555622910555
18.260088094579416,50.49349291557513,-46.546419655846776
18.40622763423391,-41.41018171621465,-46.48882429441256
18.552185511852556,-93.63375235470963,-46.43077010705086
18.69796028689002,-25.411889611424936,-46.37225766673307
18.843550520608122,39.88240874065922,-46.31328755095333
18.988954776090075,14.561443110620248,-46.2538603417229
19.1341716182545,-46.092226697260145,-46.19397662556433
19.279199613869828,-70.4475587144245,-46.13363699350574
19.424037331568297,41.03205854942033,-46.07284204107492
19.568683341860147,-123.37676502954822,-46.011592368293506
19.713136217147568,-7.700895076722672,-45.94988857967106
19.857394531739036,-10.050922746788281,-45.88773128419905
20.001456861863236,-50.474229047480904,-45.8251210953449
20.145321785683123,-20.896083218771807,-45.76205863104588
20.28898788331002,-63.82926163589545,-45.69854451370305
20.432453736817465,-110.23026153673806,-45.63457937017514
20.57571793025544,76.27181806985577,-45.57016383177226
20.718779049664203,47.46655393637004,-45.50529853424979
20.86163568308825,-40.02746406472277,-45.43998411780201
21.00428642059033,43.968520664169134,-45.37422122705584
21.14672985426517,-7.745742788740108,-45.30801051106449
21.28896457825363,34.06622448102928,-45.241352623300976
21.430989188756406,69.99047013513245,-45.174248221651744
21.57280228404797,36.81012033924495,-45.10669796841013
21.71440246449024,-34.17556382965969,-45.038702530269894
21.85578833254665,42.79983663210342,-44.97026257831855
21.996958492795752,-36.547642378566046,-44.90137878803078
22.137911551945063,-1.2313967039378202,-44.8320518392618
22.27864611884483,0.0018734275711836945,-44.76228241624057
22.41916080450162,15.33297280441948,-44.69207120756318
22.559454222092253,66.1776214145757,-44.621418906185895
22.69952498697733,41.27815654098262,-44.5503262094184
22.839371716714997,78.4113807730451,-44.47879381891689
22.978993031074406,5.331538721698185,-44.40682244067722
23.118387552049594,15.483870013263163,-44.33441278502782
23.257553903872914,31.22028960626646,-44.261565566622764
23.396490713028655,14.539740802464246,-44.18828150443468
23.535196608266645,-23.88065597318663,-44.11456132174765
23.673670220615616,-15.882023916383169,-44.04040574615017
23.811910183396957,70.48569617407209,-43.965815509527815
23.949915132238043,16.618985282578137,-43.89079134805609
24.087683705085787,-11.805260183919863,-43.81533400219317
24.225214542219913,9.681638412682599,-43.73944421667263
24.362506286266623,-29.171356074666793,-43.66312274049601
24.499557582211825,-32.76774103615257,-43.58637032692545
24.63636707741457,-32.37261333989001,-43.50918773347629
24.772933421620394,4.35576424464065,-43.431575721909546
24.90925526697455,-21.743619160680023,-43.353535058224494
25.045331268035497,-12.928663728646232,-43.27506651265095
25.181160081788036,-124.01885331207126,-43.19617085964177
25.31674036765665,6.326246481314365,-43.11684887786518
25.452070787518576,-0.5585372853566617,-43.03710135019717
25.587150005717252,17.105715928584402,-42.956929063713616
25.72197668907532,56.865543377087235,-42.876332809682616
25.85654950690785,-30.802303642272594,-42.79531338355665
25.990867131035493,36.629152889542304,-42.71387158496475
26.12492823579745,-54.66681306992736,-42.6320082177046
26.258731498064787,-31.18323474860209,-42.54972408973459
26.392275597253313,83.84838427190513,-42.46702001316583
26.525559215336724,-14.48781580946724,-42.38389680425414
26.658581036859445,11.940898721130429,-42.3003552833921
26.791339748949838,21.059622374316767,-42.21639627510075
26.923834041333006,-33.547947568183986,-42.13202060802161
27.056062606343783,39.58622791459744,-42.04722911490846
27.188024138939642,36.171435653590535,-41.962022632619075
27.319717336713467,-11.291554077945278,-41.87640200210708
27.45114089990659,-58.52042119491123,-41.79036806841351
27.582293531421502,-39.85162502712539,-41.70392168065856
27.71317393683473,46.69201860543941,-41.617063692033156
27.843780824409414,-16.031421230198728,-41.52979495979062
27.974112905108356,5.761532991747226,-41.44211634523809
28.10416889260653,-7.857028602759433,-41.35402871372809
28.233947503303842,25.08489675492002,-41.26553293464998
28.36344745633784,-83.84402296801598,-41.176629881421356
28.4926674735962,-0.3927201637400968,-41.087320431479505
28.62160627972955,2.305047153798986,-40.99760546627261
28.75026260216392,-72.99075315529711,-40.907485871251176
28.878635171113366,-30.162504001555707,-40.81696253585921
29.00672271959248,-11.881872231813166,-40.72603635352546
29.13452398342881,13.44193627175181,-40.63470822165469
29.262037701275506,-49.598578494882275,-40.54297904161868
29.389262614623647,-51.093812811087446,-40.45084971874738
29.51619746781475,2.837559339424685,-40.358321162319996
29.642841008052972,17.668920298699913,-40.26539428555609
29.76919198541775,42.50964510339382,-40.17207000560637
29.89524915287594,43.00156487892339,-40.07834924354383
30.021011266294188,-5.542883180801532,-39.98423292435454
30.146477084451252,23.564679208436964,-39.88972197692854
30.271645369050077,-38.17886386284312,-39.794817334050784
30.39651488473027,2.2111181413673204,-39.699519932391766
30.521084399080117,-134.91582616441465,-39.60383071249836
30.645352682648845,-65.58728337023524,-39.507750618784506
30.769318508958587,-47.90931019734845,-39.411280599521994
30.892980654516723,-27.250612350448684,-39.31442160683094
31.016337898827796,27.574398826154685,-39.2171745966705
31.139389024405617,-15.346016555344363,-39.11954052882942
31.262132816785275,13.79374823520642,-39.02152036691648
31.384568064535035,-27.941494076192626,-38.92311507835116
31.506693559268456,-7.18937632380029,-38.824325634353926
31.628508095656215,-74.44736570022287,-38.7251530099367
31.75001047143805,51.89255048235074,-38.6255981838932
31.8711994874345,-86.79306864553746,-38.52566213878945
31.992073947558925,-46.232430224876424,-38.425345860953826
32.11263265882921,-25.373199602131113,-38.32465034046749
32.23287443137956,7.588471877095684,-38.22357657115459
32.35279807847223,-66.71959048923617,-38.12212555057238
32.4724024165092,-58.65668827704786,-38.02029828000154
32.59168626504394,23.872686699011663,-37.91809576443609
32.710648446793044,3.1928652720442257,-37.8155190125736
32.82928778764784,-34.07164290755369,-37.71256903680517
32.94760311668586,-97.14933413892186,-37.609246853205555
33.065593266182596,-14.620718879030665,-37.50555348152297
33.183257071622926,-27.499314247316015,-37.401489945169125
33.30059337171257,-65.73645983133942,-37.29705727120912
33.41760100838967,86.75970405440401,-37.19225649035124
33.53427882683601,-35.819900476496706,-37.08708863693695
33.65062567548867,47.443762165275075,-36.981554748930485
33.766640406051216,-49.98626508541301,-36.875655867908705
33.882321873505134,1.224974916095222,-36.769393039050776
33.997668936120974,30.126556916744118,-36.66276731112799
34.11268045546982,-38.113551264522265,-36.5557797364932
34.22735529643443,37.66897622365052,-36.448431371070576
34.3416923272204,-54.634656255819536,-36.34072327434515
34.45569041936744,104.19311470108799,-36.23265650935232
34.569348447760326,81.87438248816392,-36.12423214266748
34.68266529064025,64.71664598159089,-36.015451244395344
34.79563982961571,7.700645122696807,-35.90631488815944
34.90827094967362,-37.30534006225844,-35.79682415109156
35.02055753919033,36.47866946466552,-35.68698011382105
35.13249848994246,20.743038921657806,-35.57678386046426
35.24409269711807,25.408930900295925,-35.466236478613695
35.35533905932737,23.24479714501166,-35.355339059327385
35.46623647861371,-18.439014007070835,-35.24409269711805
35.576783860464275,-11.395991931299784,-35.13249848994245
35.68698011382107,-27.92092111581655,-35.020557539190314
35.796824151091556,31.57946709853873,-34.908270949673636
35.90631488815943,4.3551930947725825,-34.79563982961572
36.01545124439536,13.633604225454068,-34.68266529064024
36.124232142667495,110.8030245286933,-34.56934844776031
36.23265650935233,-47.01738299528263,-34.45569041936742
36.34072327434513,-76.90484156568345,-34.34169232722042
36.4484313710706,33.074727839778035,-34.22735529643441
36.555779736493214,-78.75495197615632,-34.112680455469814
36.662767311128,-32.5652243976414,-33.99766893612096
36.76939303905079,29.751128592210566,-33.88232187350512
36.875655867908684,-19.110822882442406,-33.76664040605123
36.9815547489305,-94.28043153578523,-33.65062567548865
37.08708863693697,164.8839893846909,-33.534278826835994
37.192256490351255,-34.52278032713228,-33.41760100838965
37.2970572712091,-44.046915242856514,-33.30059337171259
37.40148994516914,61.669572604419464,-33.183257071622904
37.50555348152299,-9.608980912885519,-33.06559326618258
37.609246853205576,-41.585909701155195,-32.94760311668584
37.712569036805185,-63.47708575962265,-32.82928778764783
37.81551901257359,53.71095211111226,-32.71064844679306
37.9180957644361,-85.59763923575728,-32.591686265043926
38.020298280001555,29.478836335627705,-32.47240241650917
38.12212555057239,47.06438351517757,-32.35279807847222
38.223576571154574,-86.90490856863732,-32.23287443137957
38.32465034046751,-43.096643590926746,-32.1126326588292
38.42534586095384,-97.2660408026679,-31.992073947558907
38.52566213878947,-3.288847804596849,-31.87119948743448
38.62559818389322,10.841293991398247,-31.750010471438035
38.72515300993668,-20.39663587646496,-31.628508095656233
38.82432563435394,90.97721157924855,-31.506693559268438
38.92311507835118,44.35422018450092,-31.384568064535014
39.02152036691649,22.82938003938763,-31.26213281678526
39.1195405288294,75.51705252638408,-31.139389024405627
39.217174596670525,-42.209591595382165,-31.01633789882778
39.314421606830955,-1.8761980387477908,-30.892980654516705
39.41128059952201,-50.70036662290977,-30.76931850895857
39.50775061878451,-17.649058217666184,-30.645352682648824
39.60383071249834,51.26212511742405,-30.521084399080134
39.69951993239178,-29.40257815405364,-30.39651488473025
39.794817334050805,16.67489532683556,-30.27164536905006
39.88972197692855,-16.670042464105066,-30.146477084451234
39.98423292435452,43.77159267644966,-30.021011266294206
40.07834924354385,-120.671315133378,-29.89524915287592
40.17207000560639,-127.45682024543838,-29.76919198541773
40.2653942855561,-76.1575987303602,-29.642841008052955
40.35832116232002,-29.49233547237087,-29.51619746781473
40.450849718747364,10.092469455931843,-29.389262614623668
40.542979041618686,27.365166736902147,-29.262037701275485
40.634708221654705,121.32779345186647,-29.13452398342879
40.726036353525465,19.2927137763033,-29.006722719592464
40.81696253585919,78.50312403922494,-28.878635171113388
40.90748587125116,47.229522880324495,-28.75026260216394
40.99760546627263,-114.8474003625897,-28.621606279729527
41.08732043147952,5.496273252106261,-28.492667473596185
41.17662988142137,52.86930797513594,-28.363447456337827
41.265532934649976,-39.92978681165226,-28.233947503303863
41.354028713728106,34.150036887290135,-28.104168892606506
41.442116345238105,50.94345002810351,-27.97411290510834
41.529794959790635,-3.30492338778431,-27.843780824409397
41.61706369203317,106.02171337702221,-27.713173936834707
41.70392168065855,-2.966630617179255,-27.582293531421527
41.79036806841353,14.407448511625544,-27.45114089990657
41.87640200210709,39.25310779634694,-27.319717336713445
41.96202263261908,-2.4792065236045926,-27.188024138939625
42.047229114908454,11.092400110873687,-27.0560626063438
42.13202060802163,27.69334757976224,-26.923834041332988
42.216396275100756,-29.505156946328054,-26.791339748949817
42.30035528339211,-27.297449349657477,-26.658581036859424
42.383896804254164,7.684093523033845,-26.52555921533671
42.467020013165815,-90.42950198895073,-26.392275597253334
42.5497240897346,20.722826703774505,-26.25873149806477
42.632008217704616,40.61987872665244,-26.124928235797434
42.71387158496476,63.140249591795246,-25.990867131035472
42.795313383556646,-3.5722245252898066,-25.856549506907868
42.87633280968263,8.273792594924384,-25.721976689075298
42.95692906371363,-15.650200079338429,-25.587150005717234
43.03710135019719,14.673487484601639,-25.45207078751856
43.1168488778652,22.951421283315597,-25.31674036765663
43.19617085964176,18.681270735412006,-25.18116008178805
43.27506651265096,44.2843865863232,-25.045331268035476
43.35353505822451,117.57494994691918,-24.90925526697453
43.43157572190957,37.74311749305615,-24.772933421620376
43.50918773347628,49.80654551197617,-24.636367077414583
43.586370326925454,12.123139858334746,-24.499557582211807
43.66312274049602,-57.349264716836934,-24.3625062862666
43.73944421667264,-70.63253953710661,-24.22521454221989
43.81533400219318,47.355492041417975,-24.087683705085766
43.89079134805608,-20.18059697490022,-23.94991513223806
43.96581550952782,23.413841518372948,-23.811910183396936
44.040405746150185,19.96691531573616,-23.673670220615595
44.114561321747665,20.700173766294238,-23.535196608266627
44.18828150443467,-6.382839538088989,-23.396490713028676
44.26156556662277,-38.98716293901514,-23.257553903872893
44.33441278502783,-11.992744316973624,-23.118387552049573
44.40682244067723,42.58685229769478,-22.978993031074385
44.4787938189169,87.66953794400543,-22.839371716714975
44.55032620941839,44.90942459479941,-22.699524986977348
44.62141890618591,-0.6367356164916438,-22.55945422209223
44.692071207563195,31.56902358108023,-22.4191608045016
44.76228241624058,6.038193312125505,-22.27864611884481
44.83205183926179,-12.673300065172326,-22.137911551945084
44.901378788030776,-40.751752144818084,-21.99695849279577
44.97026257831856,76.82417664279268,-21.855788332546627
45.03870253026991,27.912866140187308,-21.71440246449022
45.106697968410145,33.74155836566998,-21.57280228404795
45.17424822165174,5.628785450058063,-21.430989188756428
45.24135262330098,134.15315877824938,-21.288964578253612
45.3080105110645,-6.316011962897038,-21.14672985426515
45.37422122705585,-12.99450785234091,-21.004286420590308
45.439984117802,44.75106085038799,-20.86163568308827
45.505298534249775,23.484667412542418,-20.71877904966422
45.57016383177227,33.28836815834183,-20.575717930255422
45.634579370175146,-11.996396426951275,-20.432453736817443
45.69854451370306,-8.0808063435111,-20.28898788331
45.762058631045875,141.0090519160996,-20.145321785683144
45.825121095344905,31.92320232918539,-20.001456861863215
45.88773128419906,-15.93117096328973,-19.85739453173902
45.94988857967107,-22.297015250984025,-19.713136217147547
46.01159236829351,-73.19570573440059,-19.568683341860122
46.07284204107492,25.109062569529254,-19.424037331568318
46.13363699350575,14.724156599543155,-19.279199613869807
46.19397662556434,35.051857716084974,-19.134171618254477
46.253860341722906,-0.21841412958896456,-18.988954776090054
46.31328755095333,3.1657191496395503,-18.84355052060814
46.37225766673308,-5.4412697123742575,-18.697960286889998
46.430770107050876,58.42682199261211,-18.552185511852535
46.488824294412574,18.62498702797353,-18.406227634233893
46.54641965584678,-103.95528509204884,-18.260088094579395
46.60355562291054,47.663139789848415,-18.113768335227295
46.660231631694934,71.06239145208019,-17.967269800294513
46.71644712283061,-47.80787253492295,-17.820593935662522
46.77220154149337,3.031716105589922,-17.673742188962855
46.82749433740961,-45.31523394686476,-17.52671600956296
46.882324964861795,77.70083837301789,-17.379516848551827
46.936692882693706,8.766456887170992,-17.232146158725836
46.99059755431599,-62.94675101711218,-17.084605394574158
47.04403844771127,52.785049308441586,-16.936896012264572
47.097015035439526,96.59056743057363,-16.789019469629043
47.14952679464323,52.802805886830164,-16.64097722614931
47.20157320705249,30.940303465921737,-16.492770742942632
47.25315375899024,-81.51975198710957,-16.34440148274712
47.30426794137726,56.97030455747988,-16.195870909907477
47.354915249737225,-67.82061238056673,-16.04718049036045
47.405095184201606,12.6846457397225,-15.898331691620529
47.45480724951473,-3.5354704844472415,-15.749325982765233
47.504050955038586,19.209826941320852,-15.600164834420744
47.552825814757675,-127.06869255132122,-15.450849718747383
47.60113134728384,-13.499374692160075,-15.301382109425013
47.648967075860945,-37.33666073395657,-15.151763481638685
47.69633252836968,72.18566439805174,-15.001995312063809
47.74322723733215,9.161333943665072,-14.852079078851752
47.78965073991652,-31.933493953514102,-14.702016261615169
47.83560257794153,-45.91412072969352,-14.551808341413574
47.881082297881115,-2.6823152915893127,-14.401456800738451
47.926089450868794,35.940195040856295,-14.250963123498808
47.97062359270214,-59.837693752506325,-14.100328795006481
48.01468428384716,-106.60348977683624,-13.94955530196144
48.0582710894426,-6.922847910118738,-13.798644132437273
48.1013835793043,30.571966029221514,-13.647596775866258
48.14402132792937,-78.79128615270406,-13.496414723024822
48.18618391450048,-29.87635586070198,-13.345099466018793
48.227870922889906,41.349716499973674,-13.193652498268627
48.26908194166369,-20.79784332028506,-13.042075314494838
48.309816564085736,-99.98098470647666,-12.890369410702993
48.35007438812175,74.49896730938286,-12.738536284169118
48.38985501644328,30.164888785244177,-12.58657743342483
48.42915805643156,11.572882775356756,-12.434494358242725
48.467983120181465,123.61329762999306,-12.28228855962131
48.506329824505286,-17.542216839931935,-12.129961539770376
48.54419779093654,1.172770466916623,-11.977514802096106
48.5815866457337,-9.72700217082691,-11.824949851186215
48.618496019883835,25.97967066360206,-11.67226819279526
48.65492554910632,29.357475621393817,-11.519471333829529
48.690874873856444,2.6835163444040546,-11.366560782332332
48.72634363932886,-0.8904912916166836,-11.213538047469035
48.76133149546117,-78.48133995478229,-11.060404639512342
48.79583809693737,40.308299901749585,-10.907162069827121
48.82986310319123,43.51447968719637,-10.753811850855673
48.86340617840967,-15.445719818422125,-10.600355496102745
48.896466991536094,-82.02486107666229,-10.446794520120564
48.92904521627361,-11.201112582954458,-10.293130438494055
48.96114053108829,-71.60440987283579,-10.139364767825624
48.99275261921234,74.0638651699396,-9.98549902572036
49.02388116864723,-5.036818997475777,-9.831534730770978
49.05452587216671,-28.91973999211866,-9.677473402542997
49.084686427319944,61.81667956406687,-9.523316561559488
49.114362536434435,-35.066334712895106,-9.369065729286234
49.14355390661896,34.11821371851691,-9.214722428116678
49.17226024976649,72.7677604446732,-9.060288181356846
49.20048128255699,42.75145786728135,-8.905764513210494
49.228216726460275,-39.877729055296,-8.751152948763801
49.25546630773869,72.61474927009772,-8.596455013970484
49.282229757449905,-97.03523402228345,-8.441672235636668
49.30850681144944,-23.290055823439086,-8.286806141405968
49.33429721039341,10.938031267006432,-8.131858259744172
49.35960069974096,45.70263951514527,-7.976830119924318
49.38441702975688,-31.59823489107351,-7.821723252011554
49.40874595551403,-63.497629757195774,-7.666539186848009
49.432587236895706,-65.68653905554517,-7.5112794560378395
49.455940638598086,-46.50558371321484,-7.3559455919318655
49.478805930132545,33.979152868999876,-7.200539127612615
49.50118288582788,24.257896384323836,-7.045061596879106
49.52307128483257,43.14150979168965,-6.889514534231885
49.54447091111693,61.67205320758511,-6.733899474857622
49.565381553475326,-46.95562768857448,-6.578217954614127
49.58580300552814,38.43502845115812,-6.422471510015153
49.60573506572389,-67.63160695818866,-6.266661678215189
49.62517753734119,-16.63083398746586,-6.110789996994458
49.64413022849069,-62.494638567351366,-5.954858004743483
49.66259295211697,-41.99088322151661,-5.798867240448074
49.68056552600043,21.778841198586363,-5.642819243674055
49.69804777275898,-25.357779818266224,-5.486715554552244
49.715039519849945,-155.48648795768005,-5.330557713762986
49.731540599571616,-26.19437615422589,-5.174347262521127
49.74755084906501,-49.34008637434802,-5.018085742560754
49.763070110315425,-73.91019244175266,-4.861774696119943
49.778098230154,-41.13291286582226,-4.705415665925702
49.792635060259286,18.146354203059943,-4.54901019517849
49.80668045715863,-25.02189029138826,-4.392559827537164
49.82023428222962,84.43040676014938,-4.236066107103687
