26.651036654330227,-62.65029449645168,0.2548574325227136
6.229684797443015,88.39692750172028,0.16648705273515885
-12.002929158429726,44.424828662716635,0.24447203445725196
-24.945068722586193,-143.85165188753922,0.23330331998836237
-35.4114699633043,-109.67867550214339,0.20100014675104474
26.806399160991464,3.8452335579524837,0.1882379068825368
-1.704123381215394,37.50979263154042,0.2462383478470515
-35.48307721787888,-79.50931483063022,0.15006042979515924
12.677951784798871,-499.4247784422365,0.13051952051724508
13.812324968133634,142.7844527267225,0.21684036159262463
4.242366969325727,-118.76662056467973,0.32014265053500607
-33.37610716382374,53.5436729621867,0.15821969336389968
-16.685677251507112,-220.00138531450278,0.18770311202564938
6.27436419774578,277.7926511054796,0.2297218082154916
-38.84120510704216,-332.67036481792064,0.19657524087012204
29.9276326552989,-180.92074218026707,0.2156493263420468
-2.2860490076752047,5.78629411888179,0.204976146163455
-35.41794995968654,-104.77613524322531,0.27910360235518444
11.88592262384464,44.23929481592796,0.22899264127135663
-10.10367388313416,187.4189555497783,0.1915804549393962
19.56580870012891,104.59842769827456,0.2686196885302671
-7.954542726182279,118.38741761639027,0.1906841662374132
42.619452027989276,89.88688693466239,0.17114985777561253
-4.249849297738136,-191.3222118106712,0.2946968402504089
27.498032760750153,148.0775669088382,0.19327903078775033
-3.9196099033621112,258.21115115061485,0.2766013089866969
-4.3073074964688045,-26.00982616398954,0.14818847460480844
-12.852271170678005,-294.7033178449414,0.18403773985436062
-18.426191993673278,-307.21833777599414,0.24373589689449132
-43.48043519506321,-72.07528825585344,0.2169797771581071
2.7768502494307117,-124.05036924774716,0.12657196587734632
-15.736793112591634,-17.704479948836997,0.07579750333431773
-18.687346033042843,94.01802530748014,0.2030048461225468
-11.389042055648272,-664.9940249859394,0.19082366456657715
-4.1884304683091225,-23.367433221594016,0.24846307707774673
-1.9076430550669272,-134.94681173326964,0.14908580650863668
-9.58031333752775,11.004923999599022,0.16043370732632506
-43.78147906425628,241.67123503401436,0.19403399500698704
21.511957433908698,-59.91206937278385,0.2512522702714986
43.2299710824002,35.09021223529616,0.23311790588751194
1.3035758954724985,472.1620051635301,0.19534349976829868
-15.759800297378943,-391.00048558727434,0.23448390974063824
-7.815477201157011,126.08497952613781,0.15654244956601449
-35.62878048913118,97.77295045972275,0.2988342013808175
-14.362885723798634,37.537346930932834,0.16202789134814313
-0.3032139916080786,-27.103029934373236,0.3027160855944978
27.79208519080445,26.356449463804115,0.2090624579804611
16.27115429282073,-120.05049966883985,0.19295976708515253
-1.8876414393237764,-116.24925878431816,0.24548817470660228
4.297760418917274,279.99072865574783,0.22639441925995876
-10.116339470302599,359.4556969883217,0.15538820485199334
21.85427189368399,111.67708742541953,0.22559855188937022
-9.807411301238865,-29.261012271906996,0.2353800771639045
21.83530467400589,171.15927290376442,0.14273055413496522
45.14215740815772,43.37557065724452,0.22741304321511696
11.962207619402914,-0.886005600066567,0.12585647505764797
7.889862482430358,-315.85238094603665,0.13872482609015602
-18.394543822424804,-192.16869423656956,0.215325090581065
-7.843201030222926,-180.196472145565,0.21409719185102705
2.8562012621117985,-435.55089322579505,0.13868111362209568
-0.021721437292073938,175.374743467413,0.19506672621475318
-20.962498257013582,-8.756557677715131,0.2488138620747454
-25.74235538014561,-428.8580299014887,0.24406145956286382
21.51406171642574,-463.0569148844516,0.18276488208538513
13.58479635276176,213.31549759487297,0.14191441116219097
-9.166977311109367,33.03702494475987,0.20957583240288435
9.5397474005296,201.83658460483605,0.1377799539978934
-19.501100735526272,105.93361432639708,0.20272388747744044
27.215684121814007,-186.83688888123194,0.2057624633888877
0.9498671546335841,-27.837798505746814,0.25618431254232554
38.63565363927373,-281.78813728353805,0.263823705348746
9.860534718989044,301.65164948651363,0.22058823527554847
14.881452441663928,14.863637929112247,0.20282309493769676
29.889899075779944,-170.10903032995296,0.11716828304479479
-16.29657076860529,179.92841608717725,0.2580074961762795
22.28740528184206,-14.380537402953653,0.1809224533354783
-23.405550568216896,255.02680981151335,0.18660349083031563
-2.1622936791649043,101.00024748212905,0.22680417273630346
9.496541309530546,229.79571781143818,0.24482723951691426
-6.945872568502995,-252.8500108133626,0.1717207573418544
-19.14565047463088,-79.74500707492908,0.19052228527306758
-2.9472267933448597,0.773014136075899,0.2905749475355929
-30.57128099383764,-167.2375453496439,0.12398359057418928
16.38213974607566,-43.38451551799633,0.21723562805855445
-51.86994411197339,-108.32551793968817,0.2501513921238793
-20.43747558513983,288.3884528639366,0.19436860920839358
-7.686703026559879,-312.253258955311,0.2543615626906196
36.70918624362914,-291.69057846193664,0.2891579494534317
-14.951413340933517,178.1357373759599,0.2363279337119019
-28.660961498879523,-218.25693808400558,0.29304470794701415
-32.89622348153071,347.39536880329865,0.26731494252978805
11.509762089464415,75.58080622642339,0.19525233253784002
12.498105130201926,-111.12406820358751,0.2301907877127251
0.620204348128319,42.1665651880534,0.22983044608739972
8.759056972825066,-24.948637119396366,0.1934801349473651
12.262738725184185,-158.31417444617273,0.18238764094554777
13.290439578486971,-12.544286823575574,0.19956856123675568
48.79665886504096,108.43653834672445,0.15671794291787447
14.613965692013831,186.66365501719991,0.19235898703365714
12.241993910437214,-107.64756517742006,0.24623409192051804
7.016334269807754,463.7985909234928,0.19688246179835248
-14.558794507594595,-1.1264643850020957,0.22998453013069353
-17.177660687318838,222.24659122542047,0.1061544210213617
16.59255317441171,326.81889318653197,0.18731792312104542
-9.626583264168374,-162.32884127396682,0.2069047759470891
26.01145128146777,-156.92758244585696,0.23331308614227905
-2.296009814169419,-251.85419982103903,0.3373240507668642
10.954163854307367,-117.77008642565221,0.28288070038482976
-2.8410492360880557,44.95444848152162,0.15516222085049222
-6.138646102651505,-94.74524903833964,0.252121620383849
6.153630181835403,114.8109840365767,0.1803387550889772
32.00967147504146,8.738657370605894,0.16623622893694384
11.825470467460985,-281.5207869865505,0.25022637111644214
-15.929385136424933,354.12071830703616,0.22940238355477935
28.82996227376511,-198.93988155452024,0.22447770915707568
-19.803402649974917,-208.17364860677006,0.23607511438613693
-14.184170286551051,21.685391392848224,0.15607855171804652
-13.796102405632846,263.1460090858273,0.23565947409033097
2.9500205392635506,-352.7172115770469,0.23181923981837832
-16.77909522949751,-367.85855436767395,0.26108314132316063
-29.971027043875846,-387.3641885806133,0.17178182782275295
3.760707451417946,-194.95487931968472,0.26924056047749323
-27.494642533013504,-75.51808098931185,0.1564859326024613
0.28142380014854024,455.3468857101829,0.24151777220984672
0.6503554658489592,107.634420127637,0.23629678238971644
-19.880230212278033,-169.09349446031575,0.27465754093243777
-0.32301423440488314,-84.80080592886054,0.2259383031564757
-5.647065945071393,-48.22791077169188,0.16109491894871486
-35.263193919230254,407.0445052337483,0.10960403517260256
28.903135544685217,-293.48908804238346,0.25385999477617255
-1.7422310789967765,-257.38228872925697,0.268001252312666
2.3031327365461194,106.61009491141212,0.19535680377630887
-24.19193332389217,-306.60996600573736,0.17442726772373962
-5.170562460389827,-111.31835959954816,0.25118568317586415
9.467905482589158,141.57812390037475,0.24646791992817335
7.674831337858853,-145.25216146554177,0.16278872297264
-14.65137769768524,-206.74186459639344,0.23267940932792952
-13.221828338931395,180.8863496256498,0.22656032529900727
-1.267920106914159,-567.3387481943911,0.1444308654884886
3.2064435060932377,262.1850084605144,0.20598269897987143
4.625665914936193,-202.7427371008083,0.08496139147877445
-15.73988840093669,301.00485265777803,0.17755192367652672
23.060889255406384,246.2726533485602,0.2628202545321945
-2.4036417878640965,421.0392947173128,0.2514214679535421
14.794799956262157,78.64544859476455,0.33062813672588415
-29.368285024274737,-331.7853319926081,0.1668346978725473
-27.140398572312957,272.18663905316856,0.14768902266168726
-15.22266204466003,-153.1097564680404,0.14685412637196604
14.120435402587969,-86.16330064826498,0.1618175207086535
11.270177390639597,51.7961588143528,0.0874305336182635
2.605386161593363,26.91100021655276,0.20867017037513122
-13.480787313943043,440.7023021666589,0.1955425838554378
-0.1938336414436611,-90.61670567173142,0.19328802919569413
15.470442016771582,433.86749558351846,0.2581336725020007
21.456786546426414,237.7793454491596,0.22213110839915193
21.230890790023174,26.949241160411617,0.1757941503157517
-0.5695709669827987,-283.16288399327976,0.2250899881212112
6.047779923654263,-77.53880814274629,0.16368863374670617
29.309475156641437,168.4197380331105,0.26062840611033494
22.338382276011934,46.86600158880888,0.16498937143429251
-2.436825349297023,142.97315597762002,0.24053672823602745
-18.001778338656916,-170.96922791028092,0.2526366160721656
18.16658296490909,92.48086685928365,0.19039131547703128
3.214478868884079,196.45976550949914,0.1498816403340452
1.4307291942690723,365.81030115309983,0.16482388786331348
48.75570229996592,7.293275840672944,0.2588143569262409
-1.8324170195065324,-164.04770340818752,0.20878123361079073
-22.8755172546259,1.3135536899399856,0.18890859018335768
-29.890470750365594,169.83518557056206,0.25033269177996553
-3.8764454854902386,-200.12136152178238,0.13772476827779756
-14.32470491072702,-16.805832611060925,0.17748665621231785
37.3269319247178,110.71547323016584,0.14354119279118208
-16.749194287745013,216.01514743567276,0.14681503152126912
37.08356271300769,-25.256602583619486,0.2001316315446217
9.216907232972666,360.45083041577703,0.14578504737505424
-12.87479515268923,-110.36832502438152,0.20621412956258428
6.6648793681281715,193.25582350130063,0.2155178811171019
5.356405022683974,278.7063027133827,0.23518171292406995
2.2215942605395576,42.94588728928038,0.2174177297361272
-15.392069643841257,209.7876198179505,0.26702225719134187
32.48359908712353,-146.61306693692268,0.2690962775981633
50.12547367148103,-52.272679881536746,0.14716134215110388
-0.5016315933165936,-19.872270724798668,0.15995354067368497
-10.867318069614795,-121.23329978746,0.2258823214863956
-22.571259612918013,13.99409718903086,0.20843851312750233
-10.901963638132791,8.365846856760859,0.08229349278573808
1.8102873504224375,-6.6579276252601165,0.15791434839832394
-28.438446748839056,239.87924891401948,0.2498920849345246
0.8066783843336899,-16.707540816119035,0.1648257772569959
6.638690508479455,115.98442339988604,0.21624738625940956
4.137988468639756,365.0648618667014,0.20093098258774642
13.507184407819103,-174.77939891129728,0.1933581448706636
-20.33182897883025,26.788390942462247,0.16996273108487153
1.8637818378416817,63.85665347923302,0.1921765830424452
16.15076953496338,-198.8778183911416,0.17877960260440812
4.725325925439504,-53.44440502076437,0.1862396004091168
18.053310256103245,-136.37527170335377,0.25013560775928223
-45.28766643060575,-167.62476320512297,0.1979527792540687
-38.16694433833264,319.83206510028066,0.22150288127342999
9.129236798312098,31.64435798835904,0.1756029719805194
0.17185699122250853,263.9808574019497,0.19446349572083346
5.9834165754122095,24.851957506511276,0.2013581867954711
-19.495899974957442,-3.242704881661869,0.13885146177631408
7.226081433425108,32.180638939896426,0.18946982480933205
-5.334100612158395,-74.51482582198888,0.18543760980960536
-23.261123185762074,-185.828637084045,0.15689875005237927
-24.566520356430356,-25.31393694046018,0.16928398487680063
-6.408726721751438,-101.9076790042256,0.1461771881055456
15.690719715413646,-50.83043289958685,0.25123578653758094
-2.798733059499312,361.1655777415378,0.2203346506852259
0.08234307355131226,257.60227355400065,0.1623902447298468
-36.928070651979645,187.44345586437373,0.21587729472454814
-10.409612038947513,46.74106416187988,0.18289851415991557
-28.210750303593713,111.0314217560519,0.2395802128629506
-27.362007587458763,-152.68193488786605,0.1969326857945287
-24.964745970225337,-73.94369885170839,0.15482798155660044
45.209227319200906,-418.80763142994874,0.2306896243426646
12.752520243180854,-0.36894719645671936,0.13967829272668048
29.848318326235116,-156.1394152085214,0.11344448850687278
49.506655284489895,-260.10786116126866,0.23229383608096324
-37.28032366921132,161.2143703306559,0.16896737886296692
-2.4572233787988047,155.6844089313132,0.1646116419641238
-14.838843384578029,84.2158130634849,0.2015084353261269
-21.37962524534617,-147.3330212969812,0.21313119581537326
26.033767677584763,90.34618407052267,0.23991429988817636
-5.3409341200743246,-150.49050192433663,0.22873963829143784
8.40788467380464,-105.71507581410332,0.13944239801171074
28.4297897811131,-439.7184495190211,0.21218537635312779
-14.451592015216342,-216.8394005033982,0.17572744291323522
-5.564901166842329,-109.49302415975433,0.18551341717935907
3.056741821639955,-6.144257283681453,0.3012146459331241
-25.769920465457204,-164.97612109748687,0.17523439298736637
33.877261879403626,-355.8121922394203,0.250869917919877
-43.17769992947853,305.73319248440805,0.1988739270926977
18.056500893922355,21.14655195201082,0.2298609511460385
-10.66467865691624,-141.9085028235018,0.096342428557112
8.76665545647107,290.3319445760773,0.13932915249461955
21.405563203668642,162.59870820038006,0.2380667786462198
-42.62535275930063,-176.62931914837273,0.15851649494602113
-2.9636268689311307,209.1605342910385,0.23935743125430975
-4.158531131363775,125.09259305256235,0.11111092864802531
1.5823598848628362,153.5247346205045,0.20995634936259797
18.080672274436587,92.33992403937408,0.1539310884278844
16.694283040550054,-35.831635384707425,0.11818893792309004
13.33512598830273,85.38433338660754,0.1804588028101196
-18.613854971847292,313.8327512005063,0.2330768250567665
30.988393918091695,263.7066243440945,0.18608307938211543
14.998305410593202,184.39433259421406,0.2833514365715473
-19.613607793397733,-356.97103832189964,0.1845851569355797
-21.821058348385737,-183.47167076301295,0.1240990331141432
8.196609953336823,-171.89166364346642,0.16001135660600008
39.87371709054787,202.73452005024,0.22951731547306775
13.172981176029115,232.33390636471333,0.24162434930026735
50.310862827048865,203.59524679914003,0.2006844193462787
21.910160916072137,162.09494257942748,0.17410336908508217
-13.583400300842246,-5.015783257312413,0.09819276337970531
36.509507435711846,-87.19316139012369,0.2497212955240498
-4.837774445296013,-119.89579001625931,0.12074123647029045
26.260104572956244,172.38429120519527,0.18248155789223852
-6.632662294024954,-40.08387002630515,0.2301629710507153
-25.998573535890802,44.59142648413915,0.13666888458862514
24.30142381702501,-70.63181833538592,0.14327629457984006
-8.334656933055763,-118.77991282424642,0.06111455537822846
0.9858311075992454,-38.764275440789014,0.24933276190987347
21.77969825672377,-218.3959532766479,0.2818688204172862
-31.124237102662114,-101.49231539653938,0.24986661721038114
15.865268533262771,-48.88126400808751,0.14202231620840755
-6.5712094306640045,-247.62853789620104,0.2595522593692766
-40.20133473945772,238.40973483860438,0.18317651518598385
-22.406554178722267,-0.04481209385071356,0.2772083760084547
9.213337857527492,111.48161571000009,0.24305977610596335
0.6678524127211383,201.4144787788787,0.1709065900918379
18.659506523933487,101.41737618769918,0.15768422257515446
-17.729206363372523,523.9555307296777,0.20263203046083128
29.06528747864786,-123.67210315843941,0.10834228307679435
6.671571407120533,420.45361274167635,0.19741859695314284
-6.9518321338117675,-88.69789322122887,0.21176813022802457
-38.731464397415316,-166.3367948396793,0.20013186666156205
-7.340222393874435,251.92261334316078,0.13785297805086488
4.821480450896601,-78.39166812350429,0.2982043971110434
-24.989091314975088,226.01192701954295,0.11168075561925692
8.554349924520224,283.82738254786165,0.21191153297009307
4.189761784244322,19.514573074896028,0.25865483009541546
31.749303983146856,27.800340532023426,0.17278670702983162
4.4328251997972865,-92.07102543226587,0.2729613024140852
-18.34150952034338,-235.3152286955327,0.23538003443610822
29.489914762294774,212.21405496533436,0.2537844808019886
4.148624104045195,277.6263684796555,0.11026322313835284
6.016935428319617,-50.26498306699232,0.2189414667017068
-8.992535391814135,-300.135601246641,0.15278793095986368
-19.69464018968774,36.95207414392151,0.17000770181104785
-17.467728211859843,-193.06481090756174,0.26290189242493445
-21.86565360389363,100.92126400374141,0.10610885283195055
-30.766081802860302,102.2653141219004,0.19194161613613236
9.207280149342335,-41.71984567788552,0.2097892886503268
-15.936755024656737,102.37157700249941,0.153570612099347
-5.392856102725637,101.50582062523297,0.17449685996346725
-13.114113739834803,-248.08944416425612,0.19666429571891364
28.753555304187657,-23.97808107634412,0.21859229817054263
-41.674907580443694,-370.9817834028378,0.25615787424552333
-21.064904950660086,-410.7951116010394,0.20652916468689686
-3.4544157554278194,-161.60939517062317,0.2043835305128253
5.009668003585588,-146.72825211081505,0.28027847032276854
-12.209320931012789,169.85435174937726,0.19667320088400467
-22.66509666225785,-29.358774603751158,0.21890704649258919
12.538175430762353,5.317994963158802,0.265112361322693
-12.489310541451687,206.55078989325327,0.18035772260053443
37.78130326497156,132.357313844161,0.2085690947858627
-31.11773412995114,-197.70252377121244,0.2169915094553768
-49.621468431227115,-64.89337690371555,0.1385482668794019
3.757729326624891,208.0177043999247,0.1483440252335278
-30.45558752560245,-212.0761684407987,0.21367537783476498
25.759102190041165,82.20967704209174,0.2138043284232525
9.79592916226001,175.15025531434338,0.14132125757335595
-24.97409756883752,-9.167556750547046,0.28257048776284344
15.87266970532112,28.78088658710396,0.14029669628171443
37.86164460919064,-28.683419176103158,0.1808070370890706
3.5872354899818375,124.6820101086463,0.168517050316764
3.33591045651271,-174.20291320567168,0.23515900035101628
0.17484362596615763,100.54674513291684,0.1682833193048314
18.27243594457081,33.82756037385373,0.13353782087249527
10.812542248779222,112.28456941263025,0.12587148834157474
4.627824576692374,-456.33842441974883,0.13848383679686554
24.89981749287054,37.05977801066138,0.24679325920487113
-40.0559401926299,66.99585600247009,0.2476482385431441
21.24714649210968,-23.824701220337854,0.21875579454894606
40.869956900027304,-383.41987710538586,0.20518718221683807
8.094341398858916,-88.35552235446669,0.16268432777686018
-13.81708426067692,136.02041873390505,0.17977354516654015
4.18108689197107,67.07729024183644,0.21785271233110215
27.738770424613747,-186.5415100489478,0.17564159936002813
9.825220872663825,-1.7439060697099174,0.28741415189609304
11.288338084534232,-139.4754628948424,0.2164837704477674
0.3494085262385984,76.97028913043299,0.18186208923531968
-5.40784223229703,164.740746295684,0.1356362107256471
-7.925312761376691,-72.86358402913281,0.2537914426430734
-41.91141022682615,-332.055932803937,0.18893755898773548
-9.19535610122676,-363.8115611767581,0.2504260475713328
-38.4056241215877,139.0161279124751,0.16362319222462637
7.089526659108902,184.3497290818134,0.1785040467593163
24.27231904233189,-206.64770771529209,0.291002081787723
-14.0787829861662,-202.85980103143447,0.19824942855009578
1.6928421220861842,306.85380778766825,0.19443278292411217
-1.875601272252431,158.66564476596204,0.20697394826748222
5.254899848523494,5.732370161882563,0.18286110562576685
20.42094081556236,-393.41347001755094,0.18537794790449172
-22.890689002649268,-11.14557056350218,0.14112144198557164
14.12311001129105,-217.7749547985564,0.25256016200627984
21.038065564401414,319.3999750922453,0.22305238642501435
8.03795029264182,229.88781770802453,0.13640389691336358
41.57748715814257,-4.843762751485907,0.3353883549731354
6.451668570465951,267.6773044066595,0.19105260431885202
-23.6573887046223,324.5290575327929,0.14074080789324372
-63.1150487383733,149.914364280425,0.15805843606279088
23.425036444419018,285.70153927247156,0.2568023996821724
-2.7848222665807976,-248.60504411118671,0.11571585834955422
38.349621141126754,379.23691846716616,0.22664739514059015
0.4897219124721805,-26.863542503647736,0.19812235025660185
-10.779524001357236,-165.99480444065043,0.22670960379459776
11.191514219220712,-321.207390959612,0.24672874332668632
6.103122576396244,-35.38396951561868,0.18166430278527138
12.588061285847875,215.3443679841704,0.19212446889160537
10.403546864457393,0.3196455351287369,0.16681942991457765
-6.231482801431301,-106.97502678867559,0.18758531900169484
-15.39810037800013,-186.10436814174767,0.24582111587909816
5.175958290954556,-125.65276958166831,0.19569616836461212
-5.103265836405903,101.74958623299104,0.13572291969132405
22.949588283951805,44.37618444400617,0.16205223832127244
-15.898913081539298,-227.89878830962184,0.22864949425054665
-31.403055361162266,166.59991364005677,0.19828114737191518
-11.473484908054987,474.12186468695137,0.24925786239282222
11.933990571435487,-87.43361580176993,0.3177578170158839
-3.3531455510445376,-59.83301029006011,0.15468841824895743
9.453787877789457,-56.7877357563419,0.22352808232610882
19.50037133380014,150.95273153893157,0.18328178360447525
34.117019044427444,-130.19068427947622,0.27512416248991495
-25.019731127119947,-258.02425388869096,0.24033114250649817
-55.967833456690244,27.36543867504551,0.11005147187822743
-17.34269588538764,-576.7463060450392,0.18254653730415177
17.28019922680803,139.3325569033378,0.2515986307332899
25.492194354525303,-174.88923675438573,0.16182613795173617
8.289843308309342,17.740317197884263,0.21874007142567925
-24.359074019814948,463.4084153674425,0.12303463640207847
37.83659977782214,-4.903368027847701,0.1569167596926185
-12.35226891868435,125.30104689179706,0.13798811435552502
-18.299175250558175,245.00084476419582,0.1608831742930714
-15.163528793699726,397.6713618927418,0.15249621090373844
-19.928820895369732,-27.406187120785713,0.2448669564200713
-2.699294245927165,151.30295856596496,0.1949155573511834
16.178455936339017,51.80917813975097,0.1807477321512378
-25.62496414622104,-154.6180782112198,0.19161069957349744
7.501067547682315,122.9224950824686,0.1293877541222972
11.733525668657041,110.44510199038129,0.2706924524238023
35.91074176496248,187.79278545979565,0.2640838209812361
-12.86958788844207,484.88915505403793,0.17638047610845792
-11.257254431982226,12.302182757695682,0.15375711855286
10.593733800914878,-176.54888187524148,0.18234915119206727
6.802977375861234,-171.92920775422834,0.15561767874119933
-0.671493780120122,-149.39058029197528,0.2946124525085878
-3.010214219318973,179.86370449311488,0.18237785065610035
5.888681888062264,72.54021180622317,0.14525854610898684
14.769358849296237,-199.13277123704825,0.18381459434183728
35.878480578308896,298.4885542890547,0.32784791385022705
-5.0133630271399845,36.64596864183839,0.19098907885153815
-9.818621945800208,-199.30469314832615,0.14463630639760183
2.42208247854617,339.36626918923855,0.23421803075508849
-11.46585498380639,-121.6695683942386,0.21332881935080023
0.32612903969199686,295.1074667352175,0.192705819838109
-38.933319629562014,-38.79096036678479,0.18255941427171898
35.96514922660111,224.2677339359894,0.13436639109161475
0.2921982703118711,-118.21736830486516,0.1989599183965901
-14.910302349623032,48.38617239803711,0.22409095074931093
10.262942195706513,64.39836335720787,0.1635863073289341
-18.776437183196826,284.255639340756,0.15729395476524186
-0.6021076511828659,-339.81281469320743,0.30111099799731855
-12.295703246553577,-26.946873228508135,0.19877684868557705
-23.862784230026392,-184.57245658901664,0.06734881037462467
-42.403437059262856,-90.74067139566692,0.18888522083819767
-10.118710179919342,53.55926164353746,0.3009632234169428
-18.338746581641253,289.9800442941133,0.18470352700518816
-23.49902000697694,57.2772081974138,0.30365029037404995
-47.02237756752962,138.5578008850642,0.14511351935122782
20.21878728689029,161.55737044154296,0.25810940661833615
-5.103400776952692,274.9094019973274,0.12289523172344974
-16.813156799987844,26.067378567454874,0.16653753058977533
-29.401383847746324,-21.306738498307777,0.21871368944311728
14.81968399950005,51.151638620214534,0.15026985295318124
35.31589915710952,277.2243652431134,0.21445711390238514
25.070200441845735,247.72134055088378,0.19450729988773985
-14.342050457363165,-5.418295741257779,0.19535654251036488
21.50874259420955,220.04411303207104,0.2095034937205348
-17.697956666655198,-126.53722056150076,0.24703863328005538
32.82924928934189,60.216744193465246,0.1546735430311675
-3.088233645065275,-554.3542354030824,0.1276536024204948
17.518386329426693,159.56645932873943,0.14448864292683283
-4.717992065854283,-234.9545729541432,0.3242195666838018
-23.835351525655657,-121.05913908582993,0.22903160345314605
14.814359732984787,-119.62929500960765,0.1933330551437494
1.269576582955575,0.24631712951674037,0.25530830097082124
27.196811649502436,214.872203082333,0.16644126914273435
33.46917680895954,27.098343931709163,0.22661188067979687
11.727050103078263,87.73339411824965,0.19785151202904494
2.4796112082926585,-12.297861367926735,0.1909640977665297
-53.01249071297814,-57.91961108305186,0.09931046192007063
-7.529320677043724,187.28417956543183,0.2619387873034707
-24.74731834455894,359.3587016903718,0.30791360654931565
-39.882489238565825,25.350938550096163,0.1365555298273992
-1.1156021725058092,-58.103307145065365,0.18637575917451993
-15.452224658948964,-20.786552104856817,0.21015013763876006
2.138939998912411,281.82056026687366,0.2271211680196305
27.61363992675374,-23.25630944020649,0.31021124401718336
-22.055667112741617,208.52339246462134,0.22248680747991434
27.554309443345467,-78.51124383506098,0.10094941403230812
13.283385323497965,-157.58815187290173,0.1943862833377839
-0.7839598814834228,-97.06641778022765,0.2743462379904614
6.964645055853408,-89.44621931554806,0.32095812193965967
8.454901151748816,202.62209769309,0.09043794761165323
-1.787090344885843,-110.06246424943103,0.19947158802719364
14.507483356509098,-10.974689150410931,0.18184429154164256
-3.772705941238608,-300.1536684145361,0.23308800075767613
12.587896236837242,-191.47290218837324,0.21068246625452292
-1.7055565585203563,-36.69870812318796,0.2097655415890148
18.95594458670116,37.41921357327379,0.19563269385929197
2.993073438912102,318.56747998993893,0.25272846210919797
-5.2969456384482445,297.2830230762589,0.2475118055313064
40.15192859989283,-179.5726440557309,0.16319780705188106
4.002174800535002,129.19590610070645,0.16310869717039428
-2.2128509099330307,158.3409475484527,0.19723805615462225
22.07087863485799,548.2105965390606,0.15381887771291508
34.72800260108875,338.07609381355104,0.2619973628108837
28.926270582730666,-101.43639508355864,0.1317267359486811
2.6119578938020864,-194.5002366801892,0.13914718525451228
-18.90804858861143,349.2965583032831,0.2090229630899096
-28.67758905077121,60.55578204014797,0.12032731704295263
-21.69976621990902,-4.405517118688535,0.27562946704654834
-16.449646617175794,-108.00522455916133,0.19176803310150972
-21.613681248965865,-102.03915261539083,0.1504263071079975
21.871702250891715,208.89349602926407,0.26200048232012757
13.980652756102243,336.38599485157437,0.1519302271854922
22.949042899862636,-168.58828636800783,0.07948994560288479
-2.828308067161448,247.9578632709593,0.25380433132919
8.66709809797138,-14.400601779106626,0.23725843462370266
11.167383689872349,-19.397979665142437,0.25095384711329227
-9.674033248697777,-188.384465874366,0.14844060578471377
-0.4676065796786305,480.2464060768113,0.15713937353415372
22.235703755794077,-13.600666296975522,0.27638661296113665
0.45088301450730406,23.44280266922635,0.22841601081857604
-5.102321263329629,-15.486092604214367,0.17620205496270078
-8.34961042959761,-307.3364134727271,0.19829275489371204
-2.0558480474190084,129.84756707195697,0.22467204321828774
2.8383833843783672,-490.48758702206527,0.15510133861383327
30.00537299834687,352.91742635109676,0.1885097806090408
13.631619110869783,25.262247153882374,0.148591283319715
8.362113631715992,5.279808138738158,0.21219166274213522
4.71996312155413,41.66577468249803,0.2364466691415361
-9.368976249183298,-177.27360254079326,0.23376716901915343
21.919602966488565,-293.67584820146186,0.2177574086992682
-16.103730040873355,-499.0775395634039,0.2224093616338202
13.977396095029038,-129.79397647442897,0.29423375983596145
16.266581148418055,-240.7754499338015,0.2049564689970836
14.807680601476704,-132.1287191315492,0.16306281922987803
14.406827829163793,191.78313634099547,0.22463696083766166
-7.120424477983663,54.48642610082987,0.1769377653497628
-30.169488235380612,-16.2468466459221,0.1668185016958887
-23.603158373646455,-50.92399022878268,0.2235476805236366
5.425225460413285,49.39452748216139,0.1891013767615418
-2.548950337913021,-200.68217546842146,0.2743435124712491
18.015192135221692,192.28165491280126,0.14587512853166784
-13.860659040027041,209.9177528653355,0.20716090665364179
6.04402414364304,-276.5932784443171,0.20532641883226826
-1.8654814628655405,43.94257951131979,0.1445435246262574
7.73374595319924,-191.2360827832754,0.199961275018455
-28.276563484398167,60.280212502743936,0.22903261120336454
-20.743126936492654,-209.68246773555344,0.28350733048835564
-5.489513310705445,134.24466983771427,0.11254899072959039
-7.691414494598884,-119.81732738624866,0.1658792231381959
41.84008578836371,-2.202944257381972,0.20403720329361463
14.657864248903756,-9.288121134318367,0.2088319306747038
-12.857438218649172,-110.43620978597505,0.20786370197670453
30.07893904861333,-85.96530912025176,0.09990740857205621
-3.1296899394635647,-467.85438954385336,0.28270231583399474
-23.294167587674828,-203.38473636097336,0.2736810095821091
-17.368549828439402,-475.6047578963933,0.17858068369179972
-26.756507933199224,-162.0286493155416,0.17218670966970503
0.699194149526524,-278.870155564028,0.23785923983830468
-11.79389447839474,-564.2434546864284,0.25091803755230346
-27.532696357579127,-128.24484360824772,0.1640208744142786
-21.587154142664794,152.06340171969507,0.18114848580308873
18.94345844240958,16.39747277332605,0.13854216516469253
31.659778862697404,72.62215471970188,0.19069488484964184
-13.574773835001038,-226.23840630531754,0.17928450505664426
1.0159075504836848,-164.09624428299995,0.28173129869831126
7.7704550702003505,-130.1488786821126,0.25687974892047155
16.738759137044344,162.2393857835576,0.16266561037139304
-25.95607996485425,30.823473310804843,0.16703564216216868
-24.799783987890393,-292.92218678784565,0.21897883908754373
11.468469385527353,-132.18443279797236,0.1994025305593236
9.998575441250377,407.9895967908906,0.20710051958725967
18.68057084473114,-146.97196179317126,0.18209895185230843
-32.0895245365457,-45.21293173745934,0.17903387016230593
-11.353063344835148,113.66151243462757,0.27779214279414677
-9.650852473890012,-164.5935647504663,0.21548263825608682
12.85413476744839,101.40943987683384,0.22344683504429774
-27.07715561989476,230.3242162606083,0.26031961296688366
7.647802707055156,272.635769430707,0.1739441188487339
13.541453111454118,-190.5093040068096,0.25642080984479587
20.429656034622084,126.67449681540819,0.1696287748341104
25.320001577725918,-251.7070116933166,0.1539001788595415
-10.925360596811235,-135.94798423253877,0.2798109827052804
16.15273208751034,-115.42647062424068,0.18815491774562504
-5.3212750986950965,246.1426490484786,0.20832850990691076
-44.43232363313893,145.45531104866475,0.22336293373428862
34.00050495821744,18.92188746209668,0.15462422658236966
3.9740969221922793,-6.887895571325396,0.1615552472995562
-28.616701002057532,443.83084126857347,0.2354404714905871
33.56469040566062,199.3268309662946,0.21371861898601638
47.5523483503412,422.097308599989,0.14202935093446156
25.792848254359164,248.03010544520495,0.2353333546631308
21.517379951030037,-55.31458170686029,0.2226156842875121
17.732203539834583,-122.18173281001503,0.14357877582599232
8.068528528377199,-233.42965896026598,0.21994870528609178
-9.408542666452588,84.46125944408723,0.24297046381237247
6.514363456891884,-117.46024944636899,0.15670414556115173
5.652570391975269,280.8702003356549,0.18455830253813316
-12.421788619549897,107.8237782035504,0.2697236970301127
-5.12086610637433,213.0247265277757,0.13212392558873007
20.292857523981063,-2.48219482278046,0.3421392845515444
3.889640285156565,101.24500876668327,0.3163446314056517
21.21504909412572,-257.15520872013366,0.22361607256170005
11.84904849295824,220.37123958499393,0.10244151878815666
7.852902193379567,107.47904720458476,0.256800780154621
-21.515111369956514,-97.03836419852674,0.25833599390483164
2.945924816221714,186.08308035344461,0.18696709024363511
12.053031037412307,111.69914573956797,0.20859322420883059
-18.755571608958718,179.62022523087086,0.24530647503162334
-31.317535291464424,-112.49755464512698,0.250689903659507
5.008697842224629,20.46153508020616,0.14697312191614187
14.903414299604385,306.80278883177243,0.29357075230538376
22.639858734818034,-249.77566629399425,0.2581291683935077
-32.73934939279921,-223.14133337940146,0.10756456675711788
27.547916325950826,148.27553871834044,0.17376207946735328
-25.773889294215348,206.10841145887434,0.19368990911200104
-3.4317016693891884,58.906854728642664,0.24893469268235338
-19.56364132489562,190.80221721398644,0.17630766320427482
-25.570348149425666,-61.817903326225206,0.1793764366875714
-21.040873824374454,-309.94537236948923,0.1794319933123518
3.257470780235529,-299.88173470915586,0.15617839975899173
26.379596000482422,375.69352594025145,0.20166066304642272
26.94683858187243,-270.091536095268,0.17924096345758708
-14.71072771411128,129.6319639258607,0.13212004478787454
21.470872742305023,59.161189827367146,0.18107212895036312
25.620825494802556,-72.74568666279085,0.2231388430154184
-11.34864195640423,-54.23225756130804,0.23177410468843182
13.511887647343917,370.1293255032431,0.2683403134610799
4.35986905678283,-123.15620486385417,0.18057093473670932
-45.75227828018234,-73.97271794032973,0.1376828975376817
26.77913112247107,-99.95181217882379,0.25199702368756216
-5.318996327822325,289.14831416760893,0.20235237763987624
0.18023666795130092,-105.14735016995411,0.13302772204161878
14.12567980681972,-207.83044091872566,0.14929863177044453
6.333266990328328,-179.68303014984463,0.1889878388828226
-9.822518720972885,310.3212551171659,0.1356948264507073
12.839693393993183,-87.73339748922113,0.15690389583937703
-18.348218138849393,-200.1483689172366,0.21361906188609917
14.712091441298249,3.5544637403854225,0.30850693591193534
8.21461272699248,-341.60882408522633,0.24316529792888023
20.293089797181917,-78.50932243151804,0.1335863160045732
-23.416350517259982,-355.6414706749615,0.20544493983435666
-8.675671889413715,-260.51625490678975,0.19750874751734732
-8.443724434463189,17.97572759939579,0.26284249765019185
2.914184128435184,89.26489221000466,0.2045875007406476
25.505500544347687,74.74536191660931,0.16626549511975364
-11.107912170969268,168.47326881389682,0.21092106934288754
46.593505927970035,-431.8979893827468,0.2674754060696316
-0.6326091017059539,-146.85816325068174,0.251938736923968
1.6366228002649446,15.50776812331307,0.24755899877717163
-19.220606757950275,-126.12293436279624,0.16738856892223067
49.387888817707754,90.29200829422456,0.24658073354981064
6.835405176615562,416.551992145178,0.22141701080467582
11.59080786390567,-121.79936659266235,0.2046870926769732
-14.456529140147259,224.5635876503916,0.1632946826524947
-52.34838755918424,98.2478046298659,0.27853820099305027
-14.893597319864726,-191.48054689465624,0.17008220879376829
45.19364409912059,115.37601149688845,0.1761269602981984
11.5616099365217,278.2110055309759,0.23139236774978772
2.444437338145883,74.92101542370496,0.23020597067607879
41.08777641779183,-229.98702320695043,0.29050985628709763
-17.37861215019636,136.63566808973033,0.27387825453930237
-5.261083883216646,-194.97722739694393,0.23034761477421184
23.80691649626961,230.7906079192933,0.14449111576375998
7.067984899382601,-242.9561080614831,0.12463869696546
-4.569879784440308,-152.0200108014719,0.25241672583442454
3.9825440346995937,-66.33828198640205,0.167535846399923
18.87779471598877,105.59603050935533,0.19745633667511814
-9.33915683897187,263.61001780741316,0.16847194333792012
-0.7641613900704054,-88.63420659509737,0.21654813198725859
-7.710735217262154,-168.43096677577583,0.26748742461400754
-6.172520938593874,363.0827905799963,0.25251471357737293
33.504021015470535,-241.65049771559075,0.12429787683559743
-19.691813344021355,22.567929844703375,0.19022913509459788
-6.002015516264951,-268.26502027430826,0.33497895312560805
-19.687878154898744,191.83169286443908,0.31392754644923243
43.48559148651496,516.3782843651584,0.19636058132911258
20.905365464124962,21.374817117878482,0.1198676643204892
-11.573631330071848,-10.815819066231343,0.23353353945190775
6.220070467758135,136.58580061433446,0.19056695446937805
4.396746399019607,-13.536687346021761,0.25159164044327603
15.960589749704937,-152.2322167083147,0.3481951805137985
-4.996277703932192,85.20860639707844,0.10850925395934502
2.0192193868810437,-131.77766261392273,0.23022872529771923
-2.1334481160719987,-0.8603788033883678,0.2004500146533977
-22.873220971259233,53.625647887570175,0.14358175272787638
-19.14309121913075,386.1851241716109,0.20944400696799925
-2.3799066757894005,104.15664800832567,0.2489409307670502
-6.394483117359895,-429.57176061396075,0.23034676860886427
6.406173859173397,-159.2247600878744,0.19384138031844755
16.485345743586606,-214.11632266443328,0.19409967850607346
-5.527422101827822,158.3860657121157,0.20955027136284016
0.47173339232428535,485.8578680197908,0.14202138907853923
6.697132480182041,-5.731590274472085,0.0986749171851281
24.125669048215364,268.00609273336437,0.17508574672981106
3.446630858573254,-0.4616662006402611,0.14353079518585762
8.294953740733094,377.01132721795125,0.19421949907578256
-14.761788428692444,-0.7113370322190951,0.163498298348945
20.371767844760363,97.89738600469872,0.1791951714354429
15.964831257395591,-446.96755154826945,0.16934356852441312
26.650737520682156,-169.05118841135624,0.26299031285897656
-10.729946666403753,24.256431218846007,0.15346647938567048
-5.930142626149204,108.66418437727796,0.21836551911911226
9.930034981970707,-95.16509052342332,0.202235916525113
-5.916226973978023,6.2655398890311185,0.21799839432553547
-35.351368269261215,-256.3599992195274,0.20439990096838284
17.279503924244036,-100.75096552765372,0.22626336268645988
9.75276589478462,54.94754785647296,0.24638790361618618
1.8424892175439291,-255.24593666507602,0.19960425462210665
-33.98680999424333,-172.24536390127818,0.18201573967576934
15.663675831808392,-242.0241605389306,0.20786711192584853
10.681043770634766,83.04690631393782,0.2525832425531361
8.943008258103339,58.37487960420192,0.209891829699894
-18.881670646243165,40.463008637293704,0.15408027826757204
13.248163946101311,28.67938393205462,0.21708446838716913
-13.915319729896192,-96.85917443598268,0.2764168352753428
-5.8535589711422045,-169.2876357956564,0.20359162908375517
14.16869590275174,106.90694844905502,0.23662689471800485
20.455572959530514,-225.49225168495616,0.1566890219778951
-25.703774099211852,-400.8912625468988,0.23808392674063517
-3.7015385726621823,97.70924750025202,0.13917021919544506
-8.194878030543181,-69.40781263609779,0.171413246568712
40.84553362990812,-305.7434547142994,0.2484856790863881
5.785062982922062,-183.99522928605757,0.183296218478746
1.31170508108894,-136.7668632434743,0.2419325828902223
8.8978271424407,32.246569576765474,0.1766322925818926
-20.482227938014013,-127.34372035876089,0.2496728933372877
5.709726496691527,-123.21996361163043,0.16245939978146068
23.911327383457714,-92.49992759133902,0.2034632164650213
6.1738137820162,98.24754077437666,0.1679787298008481
-17.681033730813777,26.916837296557077,0.2608322619292349
-10.929434035652239,-146.46585296690475,0.18307816961718107
-30.040815902767953,-162.6598360528163,0.23363812255512456
6.05912421366361,112.82309500393761,0.2154850737275236
-2.1943656587971185,106.49147027689784,0.18994473578833157
-22.956271475807824,386.636568019079,0.1693717304440595
-20.237346755175768,300.49385398893855,0.2862220485954209
1.8818676057089467,-60.32458686991278,0.21997168123750863
12.687315432983981,-304.71997780844623,0.17847119021412633
-21.491450950110238,10.332806111186024,0.23007595187582852
-34.090928362066045,36.449156490544894,0.2480670181348419
10.36266523562205,-85.22922866118165,0.2506306702054186
-30.367668694133908,336.6058164402738,0.2462334158885081
-6.070616006252187,-161.53158456652395,0.18911354042869735
5.203436252744355,-252.14484416970834,0.07507965590884269
-13.379236343449836,-147.55887774384945,0.16589109359869522
32.13971816571381,12.315988258263035,0.1473626984249701
-0.6221822833549977,-207.0443283656895,0.21909656972421837
-7.310174660235892,71.75348232834212,0.11530472681813347
-13.575336993531213,76.99819968218036,0.27586187297211284
-11.257055838872299,-168.65047516061946,0.1438554506543026
-5.018168531402632,2.077740947006047,0.19078617592972819
-30.768728661849444,157.00773517618074,0.2887609675227253
-30.491563849921626,-373.02105038110307,0.1330759517010452
-32.523089875900354,51.69787926982266,0.21917334213059514
-9.18504801236722,170.61370428810295,0.2174321649153522
25.554388860068407,441.6145428052415,0.24184352864696393
-25.287349522884966,-75.49894702331522,0.22367667840599087
-12.300339851659432,150.20258220066555,0.3126303410402285
31.906694048501137,372.3215960375615,0.19376785719382222
-14.079747403171506,219.83390798123304,0.24986900064585715
8.321915844452706,193.75724664390165,0.166186734094871
-1.3783508590539597,-183.73661835293146,0.23949913559872488
-25.703688398609643,-8.280232543140722,0.26731992946731736
-0.7448283134595977,-210.18584657753033,0.22887033235770127
12.863548594574283,189.36032059435104,0.26603657056994645
-24.575956904696355,-373.0521184307629,0.19519960873752032
3.6702992939371293,-404.31857368893975,0.29277071817866
-9.949395676068757,-96.04741422448049,0.19102743090263466
2.4413844462498466,105.6830385969923,0.21076549115137264
25.107599496966685,96.74338219656792,0.1884623090539923
-9.6362704686526,195.05511594916206,0.0735979615085759
4.433258236482095,-401.8145799582026,0.0870834835572588
10.782250340501196,201.99157692835374,0.2692055644776422
-13.96416635431525,-125.63573712322027,0.28622266396375645
23.275525900954595,-67.03294186062915,0.2215635675605412
-19.076958520457197,378.21429808986414,0.3018844593184748
-37.76396734398559,-349.2107524239016,0.23765139376054323
11.255754598553958,148.72040586111748,0.11787658836909015
-7.137654058824674,97.90061503320663,0.096468854256431
-4.439240470589615,-31.83526528235002,0.17264173062539484
-19.656413581768646,219.6122981762691,0.26485198827819345
22.011118095593297,19.89355089696564,0.32134592588137056
7.596029305504816,192.62430631693178,0.28112780685161814
7.3462640996163096,-296.0257419964365,0.23082616602230432
-15.890063312452673,-17.025667162089036,0.126105702424832
-22.840771809979028,222.30415934367943,0.2669731345859869
-18.112205067954797,-318.0748929968654,0.19958250911010608
10.178245726015527,-147.4084804790499,0.11964267258029432
23.982255545373384,310.0396427481162,0.2074137658680508
-5.795282987660895,67.32884867081322,0.09088875647174299
22.29609640658908,-114.13226711765512,0.28146508113551827
14.372523809472906,51.12224486361647,0.18512315565300022
-22.246328528734907,-220.7092527509803,0.19587886117790534
25.271629155635114,-178.91668194015836,0.16024918657370435
5.603268709692582,-51.775257367246596,0.21658425812157786
8.381514948739747,-199.0561194660304,0.2320856481691648
7.6476201604091045,-32.533698730819005,0.21668732583322659
-2.578325659981714,61.93413563925761,0.25674686326726043
4.848282140060158,-206.31864489687578,0.1604508100503379
24.656600066293464,-122.35491844079631,0.17361543026203366
-0.6200146018495205,299.8240456396791,0.18536135786215502
-12.589599421700314,-309.79361547490123,0.14251328981053285
6.624607026902564,176.77389933162527,0.18994749443006753
5.707975925865107,-380.7329031465092,0.2558949612863967
-22.359432651412714,-296.9180362891932,0.2879705010601629
-9.774419527609265,-97.67346854780929,0.2037875682022567
9.900315631090827,-153.65399241792463,0.10736737957877154
-3.936195042930195,75.87624048228085,0.16084739491729022
-9.564822300457491,328.5123011518984,0.08384301860516874
-26.353871622045098,-378.8918540462702,0.20107931244471544
15.052211566757325,-176.55459409374131,0.20526425248004007
9.385735872726338,65.68325285137131,0.203906982208827
32.20785366876583,-439.9287135431019,0.15917613655309187
10.39860964685315,88.60947773726974,0.24526016547711976
-10.653339082539997,-54.01408659209659,0.22010491491567807
-32.1213793576554,1.011005250055505,0.12924718991368978
39.90973570175382,-542.1409274854497,0.18883184170747988
9.870547794102684,-173.95688282412445,0.21422736067372014
22.410167005739115,-199.92279612842512,0.1957058263613751
15.123295237969813,-3.875904779343293,0.17984361719694464
18.528649896647497,251.5105149204929,0.23769133531701964
-1.9923822013630312,-103.66230954042666,0.1886579826347368
-2.3180694520402954,-126.15336727781923,0.12496400185337303
16.120622955302775,-348.79221631803034,0.19013705413242385
-2.0175086201690577,203.23311422163925,0.27983869224026775
-13.825482378755778,268.078103498423,0.29152793711573516
11.516593048495608,476.2189378610758,0.3237807112381811
37.60934812453363,19.120089956784938,0.15295305209377105
-15.568423095114959,426.4436298925843,0.18239310671109088
1.9462884410795187,451.4497016633418,0.14973387120674136
0.05927421738527848,-82.15776973934706,0.17132051823466948
29.681195361165152,201.57777428971983,0.17508701730452966
-5.951304242408072,174.06509349358635,0.2536864651442819
35.49490016064023,325.6196333898697,0.19107483647250337
8.864869076817088,-46.859237703260995,0.21916758401601724
16.70816336044559,361.7317461576821,0.15250044046033512
22.245313418056437,-325.7200577998617,0.13965885340106488
-44.928996258517124,153.59735833854998,0.1438240012700021
18.930001609158985,104.0078707020558,0.2186899622632033
14.063749708645567,38.08607209071295,0.2260191055284575
-7.761287004838,-82.30408306941172,0.11437610444608008
10.209539686174713,-59.5468319238737,0.16249616505384123
7.686015536577035,-13.560266715183964,0.2387900659821129
10.271310940974272,146.28591965198717,0.17616346221069049
15.737610256124075,20.806090072485357,0.19124371969099746
-7.707913114811355,-43.896829082238476,0.16376310241597497
-13.972601280934123,187.7579101392249,0.14958259958142056
7.168313532560534,-257.9714001070036,0.16236477212112868
2.457735433123503,-45.02490869011723,0.18578054902657984
-17.450285383320182,-109.76315647358419,0.27564746280088503
9.400935381860858,449.20824309152704,0.26044446872414245
6.399361016096588,-120.24209789672109,0.17800889164190295
