113.45009332665299,-107.65406840876179,0.20521767270939095
-56.208852574049025,-149.22855205117054,0.1635107214859463
149.93218320270506,195.64659737677485,0.17929108886262193
74.94553631132351,365.02029918349746,0.12064733506176123
27.254810470350083,401.89778487957693,0.13927828338867237
-4.944754909519235,234.31156801817514,0.13076182867321284
-181.8422558307351,25.48938536612858,0.25168143486881694
-37.702949637143504,390.42451959822404,0.1882614313198117
58.766453355704684,-186.59926148095587,0.25525701563106945
46.66766302014482,-179.12754615822888,0.21267914370171334
-57.86166471605804,-433.1409914663581,0.17858453668812177
-48.416738083559636,139.06786198759875,0.10364821908198542
-4.622020387233208,-66.48872406211434,0.2334189119992282
-164.00588998745914,83.48815562925434,0.1863267755154364
-6.287588909827066,120.7390661534147,0.21745059248016924
67.3815826161409,-100.58853097523838,0.180512960137528
84.52550361756529,289.9024503730991,0.1909632116930462
34.64192865307803,99.59381410596309,0.1883361001363131
41.34171626734298,-161.0999747068202,0.14637678622176337
175.8317627977179,-79.70311827202788,0.2929788174343295
226.08147537571259,285.9258038740363,0.14380636263353147
-86.84638379037169,-293.58334559636023,0.16952857797011117
-221.21867948099387,86.44266055554046,0.1969756981264039
-37.92087831032728,-45.91014594636805,0.19649533952066184
66.96993136606683,-370.7704357477819,0.21845571642123607
-4.693761129207157,-99.73532060759048,0.22472990067389098
-99.5036641902,117.60287033123848,0.26772995333146404
-199.06601675310583,-36.400414552360964,0.17607901685350874
-3.1704961319064346,90.70783845324767,0.09818614855182994
135.83875088894325,237.53693105854242,0.20730674228681006
-1.8043730661462622,-208.70657619645127,0.21273415344280286
-32.7406530775577,197.02306923854763,0.17309915137660967
-37.655600155548306,-14.75833951481918,0.23063752944701135
55.10778666397859,-103.3004272194993,0.12355256843204675
-53.85333611053894,-130.10871358798533,0.20750466771590517
33.46327733574605,342.14366610544096,0.2000824123315453
112.69735321253434,139.2164350283966,0.23801191270223077
56.35901903659962,90.41019758945173,0.2519426834749167
-63.968000944323265,227.13582835677144,0.21795651660846782
115.17678863240579,-213.0541151846863,0.28032951890288776
-82.1585881399973,153.66919701453756,0.19283699297563212
148.1705875060969,-127.97126569775034,0.21208595217784776
-76.7558307263462,184.77601498132591,0.319782071710433
-223.17159215984458,-418.084995469958,0.20369468800043106
98.0818415006975,-190.41567451663752,0.1870474803995537
-92.0674212636307,-600.715350253354,0.2310619376366069
-142.24006039801117,230.4161752930052,0.2775947901068415
33.86543919713703,-149.252903019693,0.27334135322404285
41.66248646610081,-196.59520135641142,0.16749280744377654
-63.57862575762104,-226.0316161248972,0.19977092148256423
-67.11236081466203,-154.81166013648638,0.16774955862345564
-34.338561617842714,88.71566390330892,0.18371380643214547
111.79750019427514,50.26098543696692,0.1333783507789072
-107.31524654062765,-166.67137558796648,0.18988836283784033
63.11564520233471,86.11668721831619,0.17754459842851328
-6.343247369886468,124.74462903355939,0.1921830668404357
45.20791329096774,-163.90877097026387,0.1909814304750245
137.12911336675188,-131.60864405209657,0.17371349459807148
28.918456765661162,125.63941732380842,0.2193057975803522
21.114554901721856,-117.21559887797687,0.1900529097618751
142.91391117951432,110.57948422849879,0.2094662088315902
98.74940189791549,-162.81095043363487,0.1814133337840908
-110.88896922848461,-60.10439528724962,0.23071608228366153
-157.06137902392297,355.17296086154676,0.2571016973732183
-4.654562385299222,-132.27172702874668,0.19537116813992564
-213.45036453070074,295.9365326436444,0.16622478425808396
-34.94880619337954,147.23039323811525,0.17806325758503133
157.07537247422854,-93.12499807772834,0.14638942836666635
-79.3115432234707,178.99988915450209,0.15639319824560247
91.79483340578619,-246.96924508500535,0.118299295268042
22.996127147450405,170.46123344400942,0.15323995720428737
-90.52897953353315,165.99685865493436,0.18830514874986554
80.45993833173357,-387.84092267504093,0.18821506577396882
21.16954336746082,-193.83321302591568,0.22175017246803091
-85.33647340459338,-289.0447621278994,0.14233303137082662
37.404036543827566,61.07459545728621,0.13626036102089892
-20.74419677933065,-97.91486901279166,0.20454633661526714
105.11521030547412,-227.48135045084493,0.2888262104823778
-12.515213003989272,213.55155450609016,0.19874368717024843
120.66721497930217,-43.58400396791243,0.19125593594055157
21.052538436091137,153.13926767178185,0.1701830035843211
31.100155350347926,12.033701892832394,0.1941843439989045
-228.48610807694095,-136.25334561886868,0.13263288252457045
22.614828230503647,106.98322451638835,0.17812993009122383
-6.27877694519243,71.03500947177218,0.2227233558752465
16.60147024136933,-71.56095414406505,0.16303941027479651
-18.544291522414298,-120.6239270361284,0.23973866699844543
24.681965469365867,-104.91845338865653,0.19241621145479207
-146.46315463128957,16.25790583663695,0.2356767691550692
123.3228376566723,-182.9006371073787,0.1744860049920265
15.230145010279973,-209.83054857900106,0.18469984677499232
-26.561130334669336,52.406420089149265,0.32142906108681385
-88.30921976802763,-182.74117245969975,0.11387904718508311
-40.99049721827666,-50.932792665410034,0.23267733029266432
-115.06413166605935,79.08903476309696,0.17516360177100967
119.61646388104819,-293.84833998870624,0.14311999047778168
10.678764302079006,-357.14772228740657,0.22841055447279224
-200.52613590765222,116.72755942817801,0.1360905458837054
68.91217064818447,-146.02113719630321,0.2372575821159148
132.9468729373123,-152.13857223921306,0.1890995820149921
-7.605987273235929,-108.74999212576226,0.1993802469182868
133.16402128814434,-169.63853803132716,0.1299431452407911
175.58435449617338,-25.385753041112125,0.1574732780009575
192.98534596162665,-135.47572778141753,0.15941759107926234
-85.02084177776709,259.20164264825297,0.2115587717385077
319.8658363463798,131.15966183486432,0.22678977523476665
100.93316922273836,-281.28227633788936,0.15334431835440226
4.410276060177071,41.11630222025331,0.19609405582859818
14.534874909114178,161.44675325980572,0.172279579179207
-75.62252198823441,184.75762641586462,0.1933518387214436
-20.827663775111933,403.19088373418685,0.17989717612209616
141.39179717460192,324.72532703569885,0.2661429272271532
-33.515238503557775,207.90059530875203,0.23724381986848256
50.120096093462806,221.79901020815063,0.22647793559267668
-106.5135953157474,-154.52940620716367,0.21438780815099004
133.25143421002807,-345.3670124087175,0.1331063839221098
1.1577628202366521,-38.12019212319219,0.1945314869056233
-235.09648783022138,-9.167303137841152,0.11350546197895792
-116.96659470737333,89.3851556860012,0.2095809257544823
32.354154338441866,155.19096908369255,0.2415804448328952
88.16972942591981,-55.50628066319755,0.2237794748628197
63.41012086671688,-79.53348111375098,0.270571893942012
-59.54212198201074,-7.642989182441176,0.17787117250276382
176.8155001360712,126.80193542366848,0.15570286141206807
-37.926172846307665,313.7219866676534,0.25551190576957894
-61.96446534128855,135.2869598232956,0.30799672935673966
-28.12516911018561,-289.64448562309997,0.19201534197030704
111.85927634244004,-101.43203444279972,0.2512214846866403
62.58255671020374,161.385495265568,0.19023869622319875
-30.304358174777633,28.848912511052767,0.2444325018846814
132.62767410323727,-155.09860827735005,0.16738980222612232
102.51499899305587,354.96265750142584,0.17675516452984585
22.916325031979284,-236.1890594494265,0.21940984758390852
27.984194533279975,56.342406941836956,0.20550835555881125
-30.594644779489457,63.25193928948736,0.2958096088073136
-45.43539328709328,168.7490447327058,0.1955560289258692
168.06052479964976,-141.1483629692458,0.16459433800310883
-76.95054035619636,-161.5001013026879,0.16052739431234275
-47.015745292900235,-202.40215932113082,0.13328715238455996
-87.22078413378456,138.47246824781536,0.27780927608786954
-5.146292368862368,306.1636496229982,0.20161822376372157
-97.6443149659337,4.223374026736427,0.20322152577768884
30.38891520688808,-5.9874846201382645,0.21271471793561209
19.860990368188357,242.9227289135249,0.25665452531805805
51.14178076770956,183.18692788077973,0.24199196420644659
-25.57961660787337,206.37463390380776,0.17670526883781254
1.1548198889605985,-202.89401020175234,0.08064554028820425
-109.38272734513448,-11.366376326495478,0.20718600805546117
-56.68875103584282,-87.37707085683189,0.19853340659832266
23.22681383861869,40.28958482027505,0.17390472489212672
-131.65524928471248,256.68854293515636,0.2744712969771351
47.00678875383758,-7.122685947428951,0.1325508691004794
-100.29700015572955,-159.43104238416694,0.16451018395267605
-4.581622644078761,-296.0584068960893,0.3003634512041706
-5.200082699414863,-406.23111390780815,0.16559125863801427
-81.2359871098193,-120.68194481040153,0.147288830570659
73.61015733015695,-121.8847115613782,0.1579298232833728
61.65045666878372,182.7188872673745,0.08914266752803296
-130.09623886411924,-478.92684086593545,0.1796249331800285
-57.26384613316189,-187.0252005373784,0.21589012887813602
-85.90363456128922,-146.16488063158684,0.23716194360304377
-90.42607891696412,314.8193558785334,0.22200980291270359
-39.636896687891365,139.6994014257431,0.23428992140982297
21.3972367993025,62.35713734695803,0.12923443767718426
68.03378554876566,77.43684541022296,0.31164433131446023
-50.0846737868733,61.846586030850446,0.2638151484559463
-11.665794921926615,128.03515866965057,0.1469434621289582
41.86275907158702,-131.92353150475697,0.2170471770171939
11.872716248460689,-167.15249338416066,0.17080457203105276
123.1160960788899,-14.451623599988528,0.22506151909576566
177.07577190374812,99.81317526718547,0.18760930850315105
65.61022027946267,-121.29240169079914,0.21147189518927922
-67.58238905037146,157.53667783188314,0.2929888114405438
-60.62350573837219,53.68002068230713,0.15920596792720196
56.072471069233906,-129.7273887172367,0.2126887438524565
-106.31643407339222,208.02427708899137,0.23826554524564847
47.93648775678541,55.551612862123854,0.2512568268858743
35.571520317066124,-84.4904119649692,0.14775207722419365
-106.74830146040956,-445.7008816846449,0.14413604921765918
-36.91684521417049,-97.65588460736518,0.1424275366120405
-123.78847051963065,-193.79112610069194,0.2120865962835884
-41.70255277932725,51.14857854357614,0.19224779411071038
52.867083016113284,-186.3103248462769,0.2663305081121421
-57.59092058454244,48.970050962051346,0.2461016818828714
-72.26003919034349,-226.92935076480393,0.2262427939371719
-56.04594770057214,140.91321113488405,0.2518737495313592
-57.35364301283704,-298.8257352465395,0.1927090091975999
-15.317479776213606,34.17098106441717,0.23436612108198387
114.45073992806685,144.81626607055748,0.1723366075474207
29.928994036448163,-105.80139306947798,0.24548460602488822
128.3928042803405,161.13953652417226,0.15821236409343706
-183.45487340952928,126.08230636804277,0.18573929170492787
13.330066662589388,119.15487585748781,0.11506555532613061
-117.86709429558853,204.59439432852503,0.26119575829419983
-91.80399043783478,516.9879126368319,0.14293127540108014
-134.89023501865867,63.48402178381028,0.2462881819256632
19.64437594590016,76.64979164202005,0.21675714705191929
-162.9943902642221,127.57680962296163,0.09770936670425566
-53.38742178514887,435.1802221624521,0.21707310178109515
61.98130281466664,-144.04312525044867,0.17364497722403666
-119.9069628646692,24.785724410289333,0.24042506645561218
-45.23527241410027,-253.96264680603147,0.19327835161267043
107.67919016613865,-96.03884773355296,0.1344268729105768
72.82518886584242,31.510182223518648,0.2007563546163554
-28.551947935510835,87.98446039248844,0.1912942891544067
105.49684795524368,42.35432609260477,0.2186033097242429
165.32494683241984,-116.20310612225889,0.1791380007715691
-49.79063656241126,-159.44479796243698,0.1650288635792127
151.8844849349531,-24.60579295560904,0.204669439817021
-99.28889511172999,205.332361196848,0.17104275697234939
14.08924310299784,317.06716773935545,0.22534347042976505
77.69575157122571,-184.49254655245284,0.26981112400806445
-49.47291677531573,-24.41837302427133,0.2636338023886149
-63.61529093633346,-65.38724967908836,0.18379002780547538
-85.02253891912584,38.042538282393984,0.24765155750032614
155.5721454382077,-91.93613865436579,0.21338462592444546
-12.90286117339795,96.39591857212636,0.19737883387838387
-158.47078836062562,65.5593746800209,0.17826218450182624
118.11174191601859,-145.5093558648836,0.1744122525379488
-104.16103486607578,18.941572417536896,0.17567810417360907
117.8925179104333,-124.07497701643287,0.16942468388737741
71.57805572767903,-433.5346835201632,0.2197124587981221
27.1201096712351,207.9250871259255,0.2230659988974042
-49.267490611787956,95.46956228414369,0.1752238686571836
57.615098753820305,-99.80889041638396,0.2023501686059795
-89.24162872179494,-95.50309193175586,0.14331708393109335
-195.75889029685098,112.55478437672251,0.18253312666939464
-57.1417548023312,-239.14247745785545,0.2912615225619794
-48.343516949667496,-423.09945395800037,0.21406889272045962
65.29791623249045,-232.7718428766016,0.22414606679838533
149.8536564725055,68.29195049283481,0.16630303406295766
193.4528718327191,-74.7960132210776,0.23182384300845083
-115.45449487670349,135.41574180438434,0.11408662000920057
-41.41250880866675,-78.58325290856031,0.27207094085050243
158.20370378761822,284.6167419963855,0.1638859125810419
-58.70695968131345,-315.24770513101845,0.11292111225865568
-76.90604802974018,-69.54410911207708,0.24493747597463275
104.74761471313441,183.65787526290526,0.2446197032560152
105.36357517822405,-115.13686255603722,0.16311202868207483
-94.08238050515733,-69.51143258071234,0.2035981388663881
-46.879860082763855,-70.88745691605891,0.11976597780972686
99.00114032727019,-82.25879775566845,0.09238984961450897
-75.45060159097267,-250.08833244177876,0.23103356626272237
-134.47473757647,104.40709384139053,0.19743218469318977
22.88643777840105,91.47134023445935,0.21193784959200634
26.01657818470104,-258.17289865892457,0.20336987850283478
-9.955170290658428,242.81377754340068,0.21211852757051353
103.19528952083384,396.39629909366164,0.17827790527908954
43.11302559798529,62.53078371747151,0.23860390639896617
-71.3458250045969,175.35248767197567,0.18099544388129524
81.68310303353387,-324.58989889704816,0.16020662080963716
-95.20886932518245,-126.13153455758209,0.26390712100677777
39.82377355792552,469.61087153320807,0.1707367063348731
132.34227652634948,-192.24251186992015,0.24172991428368498
14.830060652573952,-480.9353652885714,0.1538124423022006
-5.852142984393587,-105.84607392750365,0.20867134189109532
-119.29433952962974,-46.51225397968556,0.14952099004672764
39.40581822615016,152.03887218374018,0.21052358909591432
-29.18973688501516,130.50351146530136,0.27453270273053787
32.655170133491,142.31779082810752,0.20319251123229834
-158.10188631014958,67.17912444750291,0.16288824909146618
-137.28131977155408,182.95291758673957,0.1846708208600335
109.33304259579255,28.015515131840207,0.14506551737991705
-45.34259209662553,-15.226485968515846,0.14292365283161504
11.897117915815375,71.66292365534362,0.31611929085052065
-89.76926340523774,-49.599258435010775,0.23102561301769042
-13.847751015394275,-133.77320942976507,0.286982919071279
-92.50021211362748,89.49326387604437,0.12842601978788526
131.02914356558006,-234.35949272452126,0.20638645008174414
98.33026800953132,-32.77703924412695,0.22146362150400664
1.499156359797356,249.15725029123834,0.24057473513403427
-25.197508083317153,-35.265244277462074,0.23680294359570975
-38.70802862677725,108.96049138172492,0.2475705503212603
5.099850931899997,257.53365409216815,0.1208108120682954
244.36459705690638,-25.337457966769872,0.13386598531331828
144.51891526919766,-68.08066558002236,0.19585649997032173
-97.07270009367915,-4.773099444464872,0.2699545843169107
-119.11672798444562,179.497264612398,0.1335384974895939
97.50087555729135,-292.8955543622747,0.13621267079983895
25.510852842331772,193.9275342394192,0.2599160238478393
188.43621640617124,384.7564539573919,0.1365074145992701
-99.70343955208165,145.65526012070885,0.19390498007786652
-81.2049069046457,-85.31350306464903,0.14038355097252345
-110.83131426047505,-513.2547999517096,0.20257849641558542
-20.613718477048874,-143.00996858241226,0.19459943258978785
33.22445791589541,-16.14534304675768,0.21927205861969315
-32.40342938912922,-113.25248061434039,0.1792530210794498
5.5226624887942695,45.58681858599479,0.12040403116589327
46.1458621399727,67.0294605225387,0.27604306210285634
59.6638560508645,25.34756975744702,0.1544767015072586
-228.9615539496856,-298.2026192860741,0.16100180701422562
95.00724158466343,-299.53767604825595,0.07641949277241455
-61.60911853832124,-179.12887446495606,0.1238024481140737
-5.5484417883573105,240.91539370323173,0.23381315777042894
-29.352061908770356,-108.2899297777716,0.19918235611775026
78.51404970288891,-14.92573961134132,0.310764530655136
-50.16641907564211,177.27954238348124,0.19091549750877368
-33.36213676262758,128.6729008387082,0.21437216799004222
-297.9941818866662,142.36994066896088,0.21576101271169118
17.34531000279601,-237.39575747980015,0.25066357737058526
-81.95286050807964,12.397516190566895,0.20506099123582103
-59.38192935959209,188.7343906215095,0.20189912198462076
-9.687052670436458,136.22484423294625,0.20150355724119537
33.0974309927908,202.75128942831802,0.12567454935579242
78.73625031926947,-22.777786427572817,0.1625351706246035
-52.94072862520969,-215.41230295881363,0.2873230378937091
189.6338013158169,39.64407944013993,0.1456435898312469
-5.541036040709513,112.40565923042438,0.3272918807343853
-59.15396035274867,-160.34578049450104,0.20795835614551678
6.312034210752501,-489.924383117315,0.26401815884199276
0.6072856258775238,566.9174644927298,0.2868803272322019
-29.553841289970073,278.97797657956085,0.2029536628550135
136.841024993393,-456.7904997609391,0.2532033204608762
-170.04969344649652,-74.68333334429673,0.2281106090001723
52.108738043031025,-427.2497696858448,0.21738347590787305
-19.054831842098835,412.09934518876315,0.17402999673397904
87.16849451596694,-336.4767784113232,0.19238519951577474
56.03391974273385,-275.72480536177875,0.22627056738027887
107.33454474088325,-50.47987414500231,0.30747693529722814
-143.79392250593907,-278.2297973454296,0.17730969694192508
-21.918061757646043,-221.07902864653073,0.16092136643220678
47.486220509346516,8.412526055709849,0.24951372381956266
11.19787400248065,-623.0647584448132,0.339885229550715
-118.83241872318439,124.90053853339008,0.07654110550675693
-39.66239813575036,-223.1653988957332,0.15826190059532086
-5.535828283473674,56.788888746867485,0.12701342799891774
147.09332764961516,264.9489612111924,0.21456288830352005
139.71582066865332,15.53535221894248,0.20237074059646543
-77.99843851479106,148.90489700803153,0.14138459899797565
153.58656595816672,232.08383463865675,0.14574871958211377
-88.81637387279484,2.8876524905637324,0.2302412241159806
89.07945418902092,195.61640049364664,0.24190825679902703
-64.09088419518099,256.2013519257107,0.12370668515823896
-149.18422813764138,74.7643439349843,0.2320103390908985
-34.29811078590881,27.460011321300055,0.2290350601773257
217.19100327459765,-37.33046258401816,0.11920885668625841
-90.56104925184016,287.9058033683855,0.19024501534796387
64.69220822040963,106.44527716000212,0.20757137168981446
78.4443395263311,81.14151937601287,0.15638647657644505
-5.544884110284459,-310.5274198162924,0.18161476408674718
-89.48782371409465,26.731819913778832,0.22824797511989542
-19.892612107402663,34.597609072461054,0.11168170781600023
58.25470025475191,-101.98918192764145,0.2705091503151514
84.97113663733982,342.11844129446297,0.18749807133539223
-109.47954219113333,-64.38633111240142,0.22150172395381829
128.72781524415623,-68.79943816587968,0.19309247953302616
16.19024400999838,-287.4800269270276,0.19049598242356838
166.56560925832702,70.1596138702571,0.13757975145973728
-0.08431608922308327,13.674970431082897,0.20162229705689366
32.60607055638739,-118.9776511760316,0.18409902781085033
107.30713573945982,121.13034941820067,0.25142366521593346
77.1963128249287,118.53078512865436,0.27751417943276063
-34.975476181609096,44.35474856709566,0.22315930829382302
17.480393097213856,185.7302799252916,0.20322386400749604
-0.5673392804512417,-52.50330021287335,0.21988276221319705
32.19814638835842,-53.704143696516404,0.19497838651890154
72.7630677440668,104.77381486806638,0.27351439882438044
-128.88744232436596,-203.7689665578903,0.14921562375012928
-107.47034878062125,315.9795808844528,0.1636038494653126
237.8944411631153,298.188612380619,0.18083261531953126
-238.56434489470377,-96.02206738226874,0.23222461643517908
118.934409456004,164.318872378234,0.22095572349324544
-67.68539982291685,-63.50148721319028,0.14166745740738682
27.61420333520131,-131.6672687779287,0.14219092631149163
114.77699684332772,182.0637447797011,0.26994165451952656
-174.3013836262179,205.57165108404214,0.2072135037260461
84.26285329346946,-99.56477166242398,0.190560191354768
139.67292893233852,49.00751232979063,0.27158752000670117
-3.15709592202478,-141.63059658713937,0.17862990183036143
-11.350311923712619,-234.48620981738958,0.1958966454297799
25.676875230524722,-14.011939552809743,0.19609533278685273
2.195330717154993,-170.72870387518384,0.12141640911856649
-67.05919205374656,-304.5156719343544,0.20640846681395303
-148.6046491580901,0.7511819572831195,0.17649859933782858
-67.57896501396726,-164.6711859524064,0.155438124943524
38.467590182478766,-156.13463057624216,0.2050079890912913
112.1831375750931,-57.43988456176011,0.16660755499990615
-39.315258939066624,284.50002831006503,0.2840232352173391
194.67827216799262,-235.6730223022704,0.22793069665683377
-21.37699131120292,-182.88241985858426,0.13927127304431935
-58.68575340891445,-13.019283327147512,0.14250012441732413
-25.08642789381557,-339.8471966891892,0.1433836775187842
249.44256613203174,200.32857548950176,0.16725311852457753
85.7188609178868,-111.47510261304834,0.18367546201973645
112.70567406895167,-81.38121563179898,0.17717848159094102
102.91013618056448,220.5914416519724,0.1847039455394727
56.676468912815615,-28.83172634404169,0.24104104488076153
65.42285766830338,319.3300431905778,0.18344952452114105
-126.91827234554604,182.84759823566014,0.09212852963763685
33.647645391093995,197.22395087292998,0.16171083642888368
247.3607913988672,587.1663115708843,0.12509934819784096
130.10841648765648,9.142400590597626,0.25916570259961896
-53.281012848698175,70.40824893955431,0.1680902115124237
63.71795703530134,109.40302163681895,0.26232668088362104
17.38074688800635,415.04758869733547,0.07023115969087526
40.18634931803259,389.9300856310936,0.29097520104439445
-166.27399557862853,-105.19748345655387,0.18415122042622567
94.78421109887474,188.5269426480164,0.16903648492613865
95.56621651143341,-115.50358224166702,0.26773826677572043
3.9792331587168968,69.65540186258158,0.20263874814239613
-119.20161448344335,97.25892605103462,0.20525856965924222
-153.40020234461562,-144.56650123120164,0.09574271903826942
-102.75697362204896,10.335061889872213,0.1534971165077941
-3.014135125494257,-104.90122574472251,0.20283298901406172
-52.5946022119102,-59.94702869414085,0.137461801018023
35.04716764405112,179.91877678310806,0.1397001882752173
-105.6103056595787,236.7269229074681,0.2292102937625241
-146.47666890504985,-8.388899441196267,0.2578228230033952
-29.71664486515949,-76.773660220558,0.261414260802142
233.78672304062428,-155.44526203818685,0.21159488554917802
-113.49059594987898,-439.5812314798573,0.26169815887068026
115.81884072801509,-253.2961629697425,0.2460689008823422
33.12982444396603,73.70651914580925,0.15523361563475238
-18.73752243418662,-29.90772604875026,0.13496476732271984
73.38180213560875,-281.03852880928264,0.21806817056991096
21.505233394915926,223.1059341805853,0.1528102299552192
-28.197471784233237,15.712809090412705,0.2164584144202148
92.81214481913656,145.46340416749152,0.16586394055016088
-132.12541633308496,-91.10870557759907,0.11875800068022509
39.93169058362769,-93.55185250931235,0.13899146279384014
56.756014056579076,34.04962817443701,0.16846898656692114
-149.6781030232558,-79.81295449138098,0.1678101028463918
-128.06598948142488,-430.8783750612021,0.17262534077597125
219.83365534445275,-24.67586142677149,0.17636713173429067
-278.2473664246171,-120.46320553559713,0.2673504209372793
71.45607874568785,-120.50355458108561,0.17144519571560923
-20.128267539442344,43.42650698703807,0.10284948572857429
-19.330735044135512,65.44446814294696,0.12544145618015837
-104.05362065247381,114.49054551093568,0.08907484766107283
9.959235943465043,-222.36523122303055,0.29399827637041914
100.83155090567833,-338.7766259642359,0.09008785818437814
-24.91432666083842,251.92524275867908,0.22105576760894524
139.87648814012266,-80.3741559245144,0.23368030898831132
173.25197727348228,-136.31581577332506,0.13269588475635483
-70.94275112357967,53.354124799101335,0.22300792207868558
123.71811764188756,-257.0532575604894,0.19012323192286743
245.55025114910242,-81.43613080386334,0.1818426299562433
-56.14580959024279,126.371472438072,0.11612375765261193
-11.003989231754217,60.990732297140205,0.01713746016732043
52.747199149881105,-97.13526715098098,0.14585927131351042
-3.702322462750571,-442.21541670867015,0.1646182803468781
39.70706984893923,-38.94684618292091,0.20071808488458154
-120.98249951302225,163.75714360882725,0.14067360568628656
132.5979159264375,16.246004038042148,0.2247552609665846
-103.6418110633563,187.39935235448922,0.16814778036979008
149.18758782222852,262.3797922756207,0.19950157108997937
-201.8269828690902,269.5168396587504,0.23270570955588366
-71.61847583096622,-50.75740502776229,0.17652005404651402
-15.806905498592508,-162.4375954451373,0.20262795981942328
76.2545207645333,-58.269786522639066,0.1302947403521147
12.378810107244735,352.11487631890856,0.18705104180543522
19.324021152469225,-161.19575789175485,0.16398148223568904
-30.018282773083843,133.74041623377337,0.13534451457773805
-77.28826984756188,-172.6529206636125,0.19946955417674725
20.00743086374862,-173.59522578755622,0.19225210867906392
17.279734291344635,-349.2570176366456,0.20208143577146073
72.62321706101265,65.92283668645294,0.1800881094469246
44.911882718221925,-409.5570032043856,0.0907951960326357
135.187933462906,-130.73392126157336,0.161759534049804
41.14327748640652,-170.56399609581234,0.15982817821109907
86.55743209894531,-64.38833030264229,0.21940111531888445
94.23940604953798,320.1456613491064,0.25177429846047444
161.3915237608326,-73.70704706742697,0.1407526924270794
-94.88084819099986,-17.70428558759468,0.22624332473165423
151.2100217378901,-100.49125941007186,0.16217979546521938
52.92896258057465,325.02581037413165,0.1816442315542015
-6.588436690133398,-107.41966078278705,0.17683842804419886
-37.60428711705753,-14.681235409438676,0.1679477815027729
177.78416679977244,273.6056407128744,0.189096533005712
121.87807069709646,35.47253877114772,0.20432990007620444
-117.94115878379164,-274.3545350418777,0.1769939966728015
88.12167660104558,-306.78948759104674,0.22414078638319251
74.23408000853577,150.4224948914646,0.19308458715065882
-10.770749276393447,-53.20744565788426,0.1525567266901797
51.457133323811355,-154.17557485724714,0.15231207229192675
19.828498878444144,-250.23615680314086,0.17493089676595555
-96.39414150350933,63.00237416175105,0.15480436952395538
3.248014170276851,-90.2222864572672,0.17770742235999226
94.80817640191641,-195.13288643683165,0.0893118247819586
-46.45463979626746,-133.10370884216763,0.20725032825125736
75.16320198468036,68.67765458574112,0.17546640218244836
-178.85849150902123,140.31697828778812,0.10907831384169836
-116.27784192837045,183.54865946222782,0.19782070266685925
64.97286086512993,94.80664246178911,0.23717241789625182
-60.037967928319915,160.4315846973728,0.18957628463050408
160.07983675156657,-106.33723970668419,0.21572722601295888
51.05870888708023,183.79252138074165,0.14559497075514188
-136.86746235345075,179.64939166754937,0.11962837516931382
-23.798081645261075,23.114221004470362,0.3402874449428153
23.497823630889393,-59.84085025325224,0.12591710983610022
-91.65840164913843,-67.4813398343499,0.07060224072363988
88.60103057577986,383.35099553119977,0.17288309488157802
8.388721880125274,-319.3241896940767,0.13542578693360852
-179.313035647589,147.7391034530929,0.15646785247624143
-60.799478469165095,-314.21329401778104,0.10638532498879016
-74.78412113484293,-6.125712495218963,0.22741269411316875
-3.296814792813687,-147.00861252767473,0.17751505950759144
28.926894801491304,285.36524066758665,0.23429039751923358
51.60253103538679,163.6083657926538,0.19546917737526365
70.57340056417851,-577.8225189939698,0.2882209500517576
-16.163968667600358,185.57335568095615,0.19647316201033313
99.16096842814103,216.34397590776408,0.2666404379043873
43.98495556701826,-176.4191901062392,0.16166291594212917
-127.29242512759737,-125.91543867294548,0.1485269297875338
-111.02382058833255,44.187420888198666,0.24396084964138828
-36.51504452443959,-170.84887278105475,0.26035056445191795
103.18848062119343,-136.3771923000722,0.21274705458100804
-106.54271838690521,-95.18505252511129,0.17947352214229328
-71.99470973332282,194.38517631197428,0.20626868825372696
-179.2333452215779,246.95325699766778,0.2890686700454856
-72.45106852933091,162.42163944480387,0.1894677571537632
-65.31837536432073,178.04119400934638,0.19137679261394858
-6.364876987262334,-143.98115531346173,0.17441168768771076
128.98947276332453,-90.47451181233475,0.1672640185183353
0.6421266843452005,-190.22653964804246,0.18456912684190893
-16.643745267176794,-310.19712781920373,0.1789345836974041
57.1349522793199,209.68683369914055,0.22976276353771125
57.99844874572102,-368.23418544825535,0.27589081139146876
-211.90415667505152,-60.59857085941093,0.2054164892033926
56.1892776968734,-313.2977340200614,0.053393098920764354
15.798078349563452,140.34452486127765,0.2525533763262918
-105.1596482512327,38.163968080244544,0.1966867560083028
155.79066927379404,-211.8051311013816,0.1270070085396784
138.62113933975482,73.42785363733768,0.24293479855424444
-10.234953271160816,109.02377121920969,0.2247600398195466
-39.258996089768914,-178.20018447431042,0.2234899544815999
-158.23341773916673,189.42245933042489,0.2210875001974383
26.876791533922358,-347.745996582614,0.28438491969310337
57.48608289172952,60.70647665756108,0.22053989738476074
123.20695810082213,-131.13253948356171,0.20526442770011852
-149.89097862991161,-269.66443967010474,0.18578533811996492
6.650814986625448,-38.6440983395795,0.08098715558701573
129.71551797269245,-119.80060267917378,0.19876985269531228
226.4824400962651,148.07427047045653,0.2311486629735264
-43.57007872634307,-77.61037526543784,0.2708927926946016
60.82910039373919,194.25879076989457,0.19869129815290199
52.63967970907042,-207.7821983813287,0.2897268336818241
-3.437508799828791,387.60373846598674,0.1903225811174888
-2.324280816314627,305.19457278904025,0.1496275822479469
-31.993008333261884,32.25274948170229,0.16661755148765794
186.25824296709655,197.12199131882832,0.12426330955075056
-79.11693100151194,119.15342699206218,0.23253983796282637
-31.61305145078273,46.39170823180611,0.28306767979493874
-157.0353948234603,37.233385203863264,0.21631545312738848
93.90154943680935,-270.01479259858957,0.22977421678869261
-67.70939188993255,-304.61639938261237,0.1931438945763286
-32.288806156529795,-134.31943419837148,0.1845998185142878
-63.35646549180649,352.36685145510063,0.28554640839815404
198.22364579259016,-107.96896586043655,0.16255289258065603
146.71711661007203,77.30009523360329,0.18457934558328232
-105.82335505119553,102.05238991135428,0.24368320187484338
-46.3513993215906,86.91791925959161,0.16504201902670498
143.3088754497923,2.389429749114692,0.12776108638125835
-7.127595342213904,-13.812883167223209,0.21697896023648522
94.09944907964025,58.72264975698505,0.17826684918916919
283.7295663257256,206.3547717337106,0.21996439216530309
65.668467281701,375.2466739492502,0.2721450294866768
148.36083517874434,-190.18697370187084,0.12276773871490498
174.75134312433744,36.73026044396771,0.2438816317392071
107.83512846933915,-32.741138117564084,0.20439591654243633
34.571433862798905,3.3757120788700696,0.18283705323883626
-12.79871370004254,-107.52273781424113,0.20824750612883391
-126.00479325582718,208.50963968057457,0.21229826906676186
-33.315324777787,131.2561483175623,0.051387236636122935
53.08555358381831,207.84276439485035,0.18667170396229915
-100.14453266099976,-129.88859260146327,0.22124518470831145
-121.6294055888228,-437.3250827708243,0.18112878608027513
-33.248834548769516,-25.545215760605682,0.22568054525167086
-102.53757057313611,78.83188676008727,0.12262792378970387
-33.53742808964558,159.51339351879017,0.12578761077099976
56.11217039552754,-444.4743471900197,0.15035326822843328
-149.3328388559145,31.049824135274513,0.2036749444922061
117.96019490499184,-131.79122360047748,0.1844943482065342
82.65399619185276,31.601349023557507,0.24089236410936338
47.66914643385139,56.41683949852292,0.2425028440343893
-159.0067773775288,233.21062012094194,0.16113515215076113
-53.92673252363822,-5.242541024302018,0.17019421289150571
168.19458082771496,103.97078604502681,0.1893245569104903
-193.932199024863,-30.437171314885642,0.2191844227260949
-128.96889368742185,94.9726092003499,0.0875407315964356
139.73359158123162,68.87444773202184,0.15715766006842447
-54.06686088296644,-28.314165417399206,0.13188784746364474
-49.533266275182704,-7.951826683663642,0.20751222142739204
35.92596272805045,-11.411044730861787,0.2353462480100964
-162.45891380953918,-337.89612623814276,0.18407083218079293
78.12325552083578,-19.415213620442803,0.17962991608541082
-14.691176640153945,239.51467734620678,0.16958225318410292
-92.15899496807498,-188.1872721830775,0.23034519179160007
186.11570865582803,75.8514305656892,0.24485759315301633
65.11083118163018,340.10166188504456,0.16571113080797745
-25.628855038998726,158.92784732627774,0.25280336807254755
-85.2692261559059,-107.89669032668421,0.18324887138266321
37.90302261317635,328.3595305059664,0.22236523475458697
-35.08863554502148,-227.81532214156758,0.1554664290014945
-11.789196816014982,-139.6397213711519,0.23871221753135707
36.908015368968286,281.1846998623233,0.2275309893362628
79.331698494784,435.91362217669314,0.26989328067686014
15.814111087195744,-201.1008259492271,0.18087903908242292
16.382563893607756,-267.1161167372567,0.09647638388677829
-15.057627949149774,36.60276018455098,0.2669455131663885
198.31464423276157,228.98305482648368,0.19361213236725275
-35.81330932222483,210.36079409155417,0.2768876467616499
-141.82346939954536,-74.37829898894476,0.24631292984301284
4.005274580261163,175.5889931090502,0.16028884982890246
-81.20326457912128,179.65966019434237,0.15432552628683113
-23.207040418816824,-120.43010138724131,0.16081390945838175
-63.51771855535776,91.00801522463084,0.16155699976837928
45.0190365561191,-160.2270385876961,0.20458743077043648
45.4081808526892,499.97235441798307,0.0864393225273613
-119.36322721766435,-120.68930511771082,0.09636720116203129
108.24429223027508,373.84973340202646,0.1373112488811063
-33.14006176564194,-73.4608766458643,0.1961868545788898
0.7777950494444493,141.33675444241175,0.24644931864355557
26.838646035756987,-219.4895947631607,0.18457692780652377
222.7585549945598,-63.35940260831106,0.21451156819167919
62.67720036021611,-14.24551676772686,0.19272170216996656
-53.00657939261414,-150.17231658065165,0.24663119545175863
152.01189263782214,-294.3251965761138,0.10046175348939977
111.58718771569434,49.8094204842146,0.1588529952752833
-27.568179705156776,197.09905658012016,0.22814878668914362
-12.69003213751062,-33.165202304693686,0.2943844956192613
-132.92447967720818,-318.4479510456357,0.3024423380452261
29.725581439799804,-264.30062421707123,0.1316296035820934
66.26738300876154,75.77193510906316,0.21821651852142318
-114.67320724676502,87.9182807604944,0.23154938683097365
-8.028102126760537,-79.52062515823803,0.2515807444566596
-116.9036826747831,-91.29293298739776,0.2635463824452543
-45.85964215532068,-96.99998424279313,0.2005196198260159
-61.56065890676968,162.44614129284406,0.16113790275539266
-18.867459603174403,-144.63560981930434,0.18420296497408598
79.04091137396072,221.56780931991503,0.27686510448412466
-47.90537662342951,-25.26786320213616,0.19645094648775022
62.8035698289599,-269.43347807379274,0.23616592121929755
136.07588395388535,107.35828410659687,0.16700867919812432
-0.707245222025128,3.0033408903513785,0.18225800985269525
-200.58400652951875,212.2247066510544,0.15002848620367576
-21.798111754729014,-264.5311440925524,0.23811723356044198
-82.28792856566986,-74.87209615552025,0.23992528102959243
-41.971604727341244,-379.1929800012827,0.21942139117953677
-10.623603221145839,66.79854923940938,0.27901296132719133
-78.47822877644678,-206.453000526513,0.1415724520989436
68.94406257480826,533.8616602416425,0.1795747527335921
-3.8204864437017942,-482.47228364050443,0.1069044765107413
8.962245371468564,-368.8965864279919,0.21796230495301058
-20.202132400863242,227.91080538770197,0.2186575215624534
41.53328879892154,-35.3762449249383,0.1846292194222146
44.71913014625961,-43.627715631374805,0.2545746538376106
-108.63471850604991,33.23861057612684,0.25152740529851014
90.49872216136224,178.4656902795816,0.19003989450106776
214.04881753309667,165.1628836487275,0.19740569018538132
43.031575985604164,118.97854037052764,0.24279705278881514
-48.19990784780255,-92.1700080056867,0.10111234607221999
-48.5171939315743,-190.52686379078486,0.30428389046893173
-96.29854975587595,-28.16056247709523,0.1686417194712134
-23.709910085628465,-286.527470971489,0.19590652423308114
-1.43908397150784,157.88695389784158,0.21369080609720148
118.36831556455056,-242.93570826041963,0.2788323695144652
46.91976629618195,271.27241130140055,0.15498686415467464
-37.94238582213947,-133.56263405383982,0.2274053480687181
68.46127337580864,31.928380558579533,0.16558178772244075
175.2369120620987,-240.22938939153673,0.1890914650410275
-4.16090126356971,-301.48076701239876,0.2553989249186868
-123.57734637837143,-91.25008027002734,0.03611755555903057
-11.16141353035134,400.85178424121233,0.16926481513008954
-6.6554495822826105,152.67893038138504,0.22866204012584349
-81.32688553361595,135.86670280164537,0.26476000837214414
54.50571887379839,306.98577163395777,0.22036747043514995
-182.9438485026027,199.52318377650823,0.23588556918242073
89.29570680123011,-421.2852734854438,0.2662114449891835
21.9992476753399,-52.77973249344512,0.13224041148294205
80.16590911665969,-100.37280022390351,0.20304598193346857
3.5662215613470356,71.56560301883007,0.18510596802963897
178.6040293548354,148.84046187781297,0.2684600410209979
-12.84130610521468,137.35543697008103,0.104979150498422
41.8395478779436,-22.253088127107215,0.22792120637611624
-47.654418881124016,180.54226975314643,0.21674094774864866
282.7155740360953,-55.29149952671687,0.20980041864565838
-61.58050910632158,163.16926254311923,0.21365556187334453
-50.64204279220629,-145.4686205496047,0.17882832279369212
113.02588174122083,318.3042443485364,0.11437769391410356
-162.8374146083412,193.84616296115743,0.11573284231947017
129.50643808837276,174.87973275028224,0.1389379042322692
-81.74393646706228,252.0029987615343,0.19020260933451316
-205.7064260356575,-2.5754206814857703,0.15173942721879302
-30.229993795886205,-24.150555449996844,0.2853626789840323
-236.27105120392523,18.890963027614195,0.2605712789674137
63.35317633131582,-28.718420523699894,0.2309350549230277
-84.99705958829365,-226.5237133306132,0.18868712315688033
25.287472483154115,203.0469020490691,0.23906438508044464
-203.21443147848174,-255.709613082822,0.2859941026231278
46.24241472511462,5.52776595683143,0.17699809571868258
-214.273547572817,268.1152941101909,0.19227737555261287
-4.23643560395467,149.2185599546289,0.30661426614272247
26.46094952266398,21.54673577729922,0.18884759933633521
-6.970753794065764,8.006143980265987,0.24240705888168004
-102.33979542951184,-101.46334596749782,0.10705678723697094
71.04341769217417,62.74386376133503,0.15387641853282136
81.94790012050962,-58.34997498016449,0.1716305859987463
-79.75413779359879,37.910942553812696,0.26617315116014806
-149.32207700048906,-132.73782765296383,0.28248188814563496
10.95221320163762,320.723057853479,0.252867339084253
-95.26748450412894,-0.8291636037085381,0.23445412867979692
41.18136666596942,166.99051404602358,0.20346199704597365
-60.03608834815891,-236.29935393097506,0.17682146302120003
17.50105533802611,29.366935109474955,0.24073258028953753
134.84353720569175,-121.75297317992127,0.21640620329421778
-9.329628724432135,-15.182594009563012,0.168539885554757
-94.0895185565835,64.94997923928433,0.10843708629494961
18.990663749556,-220.62567006094983,0.16334259842509163
-6.113885778158405,-87.72008681527093,0.17455938328306186
-20.81298210878612,-329.9820616591716,0.26549827693428163
-208.0889615405727,16.689527368794074,0.1796645802429954
85.98521844850823,-0.1274407029164622,0.21475229149570169
47.79994761007381,248.5065290072256,0.20064075438628284
-51.39213264278635,73.89336044380244,0.24395774634880338
-11.005000895947283,81.88682592155453,0.1662581852571364
187.71280673681133,-250.60264195413401,0.16663661937547905
-6.644946652843283,81.61278288867669,0.20833879361002636
84.43003720826582,130.47123934585824,0.20962571220785506
150.91778780280086,53.09777535792003,0.2026986741679005
6.511254655977323,128.9817203418394,0.16494268347747293
6.160377944278697,263.1088872061697,0.13387373553425072
-43.24617766149388,98.66130915952033,0.12055690488612379
-131.7875212936632,35.088968150617816,0.24957660008216995
114.67036199487883,-217.73110217539093,0.2580322227616216
16.006555056772513,26.093601575423563,0.27160211589607175
-106.12869011671182,476.85872682079236,0.22914392847734202
33.771767625700456,-290.3911411302619,0.21589357386286098
119.02568147636048,92.88498003188788,0.19120943344291022
221.8496000972066,-80.97984082300613,0.2428504495467034
159.6447294704883,297.5166975454619,0.2132637043252005
-22.134844390013736,-109.54715925304235,0.2113470311882898
99.99177497125011,300.7270627139509,0.2377710370762495
-85.77291011521456,86.60561667280501,0.17736997672543886
-58.29277850891591,-33.93366687359614,0.2049990123326267
57.509655000999814,-474.5126892573678,0.2126826223393437
15.737813653668342,18.411079691667407,0.1797688282538315
-59.28849303150504,48.21575649718753,0.1842224881341581
-2.3527172764060977,-58.430240372063025,0.1748400800235814
32.05808128946903,-96.7268130392107,0.2638442232697617
137.4489688799954,-45.6390048718897,0.21553529965982235
-90.75649093368669,-156.14196359893248,0.2204663987797762
-33.270406869328745,133.00309832707305,0.1238221401594728
59.05696184006693,72.41215848747706,0.23264512082019068
-58.493189771290865,-173.08824814301894,0.22944312639254152
-164.13308231406077,71.36499610693323,0.21849006265025497
82.33427406045757,197.84430009536922,0.18163642401365115
-2.8655914128826963,34.966861888495174,0.19906325694907528
-48.618685137065924,65.51233713448768,0.19315739349226085
47.13058097800498,-174.1130151173553,0.2675496809251783
4.367067465058962,169.95645655339447,0.21323381293191163
301.166253450141,-81.04501786434918,0.24997888649725789
145.1419287207383,-30.190591702129776,0.20090525893462294
158.8546434907843,154.1268285333236,0.2391326455809062
64.73728556672589,-480.4608308107837,0.18352429563544484
112.11730350178739,-121.32035489492625,0.2246704216228141
21.828900636126043,-477.5752052852754,0.24248349095431465
-85.18846791316754,40.30439003159286,0.19326878782903362
262.8908849252157,-29.391344422607173,0.1520636776043074
-120.58255355982067,-204.950713138776,0.2128783688315265
-26.037125620907016,206.16005722516556,0.25545585852882435
127.84428767844783,-227.4310425256727,0.15458738301504663
23.10387674874508,79.66187979092909,0.1830286985869374
27.797066725625196,7.110104715316212,0.24415297903029073
-191.62791452992366,132.74276596447422,0.17594720312819076
78.25065387276057,-205.81758072864395,0.1490523095062074
-141.7590788349869,-129.7873030103143,0.1594516805851537
116.06121867419674,264.9992478661455,0.20012577844606902
-43.06287568031228,205.1085841755964,0.19027300094247412
104.42515118154294,159.6509086045951,0.10970869940971142
-72.72641534538998,-21.518448034368074,0.16199408266830873
35.03266221512497,-222.3652145709583,0.15929503538672118
-65.22246990933493,116.18026039571248,0.2678542319138398
-37.291386099833105,19.88964110637516,0.165244940098421
-51.40368667029917,58.30101955627447,0.20911505581439138
54.063104987676844,-10.279555801795585,0.1620061788599782
153.60499229592887,-342.5700587878297,0.29913738677087043
32.29720524759399,0.33536179324602144,0.24948004536500218
86.90611594693718,357.3946191651464,0.22507491255118214
1.1511603556966665,154.72396009085972,0.1495820887022569
-11.441633016234237,-68.2305910662001,0.17895251635093168
-1.3875982731198,-201.85884231451783,0.11389702864852813
147.54650704460482,42.1796603529425,0.25089494745838614
-14.998183220397204,-101.0562051715423,0.25115619008022305
109.8633059532131,3.52313693962103,0.16572146006187094
-48.04737186934519,-156.29441439008724,0.2117074170306145
14.86492999338893,-47.72694042772149,0.19863644504649514
151.5412727200414,-274.883424236037,0.18482902400564874
-10.225524898732594,200.5334603008854,0.1798711469051144
-98.36645030993031,-306.1389444626239,0.20791313602960643
-124.66077534956625,72.23264761790352,0.27300365827396234
-59.228554777745565,94.81841842697129,0.1927772259946428
-62.90579030327491,11.91117273136004,0.24434529174668737
120.97210038871451,-200.52709534334525,0.15544795651718316
38.28316429356163,-54.198063257533214,0.25256190031333153
-246.99535395124937,-112.95943950386072,0.1902424066568411
33.62588188565771,-122.36430289668236,0.16051847706252714
52.045176480890945,199.48685678873616,0.2388808482892937
52.08798884167942,-140.57388698906377,0.17266397025663408
-63.30853202043972,-4.379503981080315,0.3199001050839839
-25.956382048923437,-217.01794422624684,0.16304639311085134
-31.048376363938424,142.9740981252025,0.19401752884305376
61.84330246771603,72.57387150826995,0.13707398542969845
-140.30900414835708,118.79412548956721,0.1482032450965293
31.15222158080895,27.824680889859877,0.2310498039022317
-114.6953402519209,182.29990217038747,0.15819967290302694
-4.350287816255854,-287.9893215124674,0.20632965657882812
113.94650929125643,-172.42815280584253,0.2473945486033505
66.08098894193103,104.62792318900836,0.19802725470337493
-36.82287632224767,9.138017797871699,0.22649690781588594
152.6123779868056,125.72158374013458,0.16249115971404318
9.814030527691907,-72.14162356358517,0.20210241469168197
-82.03590135095024,376.18116383936314,0.2160690119650846
-29.80614321280049,-211.49923591555267,0.21849267597798355
15.856789991892454,227.23365039363986,0.28523292126731103
89.71953615317061,34.87925132541649,0.2140352202070273
52.43848722747562,300.2358678345609,0.14784464717887083
-165.17887682985935,74.63386582115032,0.1981536023820628
-88.09508878141796,-327.44331911700874,0.12596259669189397
99.17671256132657,301.1636093749549,0.15132321986394653
