-25.030296538058455,0.16479304270725,-41.629413858761424
18.556450187264755,0.17912012255238163,-8.068287813068812
-6.868124790797221,0.21742944247915735,257.9980378296224
-259.5874594626708,0.36714837259358396,-133.6702448944668
29.106254136183985,0.1629788567552043,-440.56208285203127
79.77910156980943,0.23051430342093937,-262.1771851757828
-16.723559696845907,0.14630824565993847,463.29341188939696
93.48536418913817,0.18631428382638837,-164.06289254210145
-65.13584044008961,0.30319721856782117,267.8859476980486
102.93541385878136,0.30192626515644344,182.09489378268378
15.326144088263312,0.24241893566899161,-184.73373600156194
-70.93764426923195,0.21161435189897926,-265.19799385905407
108.78729087829959,0.1398026180642259,203.2998347140024
65.96987498874063,0.1326143081858264,339.0911495166767
-98.01019454169531,0.1782424771584016,368.03487863498606
196.1954496921564,0.2910001677144858,-283.416831897337
23.214322828976535,0.20598293805639029,-20.429639818642954
-165.38723125063007,0.10244246997625438,-57.20612170562301
-132.2704533087306,0.2614215816794596,159.37828141185585
76.72168960950394,0.294099808225764,292.2746338932948
139.22953469534446,0.11549869438698092,87.67499546130587
13.011764096104539,0.12870555298674588,388.3647648918662
6.128935445392647,0.17675559333401666,-232.59301211626195
-92.96153712981463,0.163105139657807,-42.54604136620711
-90.11092536069945,0.11161613248096686,221.59444082761595
-1.5453433779043377,0.14508172866114377,250.99129377062718
110.09416911034317,0.27855518242874966,50.460475040906125
-7.325748750548554,0.21619853861171973,52.7881038334481
7.98106181673531,0.2161631116401774,-121.76259234533693
189.81383379345175,0.20056442040311342,-317.7581020493119
-189.82557995198553,0.2862596101038848,-211.18675637489548
48.98478019577125,0.23248844609993002,-107.3990985654956
192.16401133885967,0.22376586936648626,80.75332233638962
76.81126949992247,0.16226882810219012,86.38242070598957
-117.81472362021772,0.1747058475333796,236.69442026931128
18.569412672283555,0.18797009400152784,224.731439222395
-172.9971624153125,0.10502505962856594,77.71520370407457
-4.262649426628052,0.23516491323633928,72.49904342435227
-119.01848988725736,0.19903483333258346,292.8713490026551
-7.399098229574444,0.24468938039786844,297.82599252001216
19.474391858296787,0.18273979025427634,-89.60209968962018
201.7633625666847,0.20107435153011613,-385.18195860577526
-137.53242974976467,0.2033189085998481,-126.52317688786039
-60.620585762798775,0.22371301970687682,124.20576716835218
9.474189656833488,0.20611704765085445,-24.77414362944105
-81.92556550091186,0.22355770542649162,338.9533673300462
-18.18103650459434,0.35010008781002266,-17.407844719677602
1.296380390715274,0.24047321029879584,121.38286197996216
-117.40285575767426,0.2543258857611539,50.620670231334685
108.10833948838014,0.21770690992530958,-169.35960267227006
-16.85696499993714,0.18508567583209132,156.93754368125016
52.19645485096299,0.19159562083738169,50.58210492750692
179.61420495486215,0.20695294341399043,5.964783591966522
-16.82620673780459,0.2545058516673667,113.75623880512711
-132.54183088171138,0.22321404435981734,-49.89525270776055
11.114196507094999,0.2169944727155446,-124.43955696494753
-83.0649202271002,0.19312213912957557,-11.873054087772404
-113.45853626545839,0.2528421342983841,-27.668148890920424
-14.30832318753743,0.22298214358084303,368.11909658294456
-75.60308081542806,0.21430209835949393,-98.24603212499231
165.11585393875754,0.1265549901722267,20.539883976533755
133.61060876204118,0.2437105109468752,-56.904536109749074
1.2588666355148235,0.27087905955308844,162.2670066928467
47.841526796549985,0.17827261047775064,-107.83832005862888
71.67048417584293,0.1742917360003711,-165.5501468844041
220.7088427471065,0.250478357849272,-391.27385617898545
-69.55439058998812,0.22193217068899823,16.906485712453996
286.4791270713607,0.2074619696338165,40.93570015687271
-27.228899575588045,0.14434701832948788,408.5512153230523
26.46662593692508,0.18628131226967892,-118.43826568580245
-86.14953553211335,0.23148345657565245,-227.03915962741007
-14.047110027628944,0.19165383765850558,-30.325217131032073
-50.487810501513266,0.12191390592140429,18.683144867592326
5.085381568567177,0.22038959124771418,103.82559913931135
-147.81834999496652,0.18842450080356077,252.97744947490233
-136.0106133900152,0.21783698823126935,-116.09664224536711
3.9877877117601925,0.1391840527881019,132.82033761701243
-14.081737792802917,0.2951704203840563,263.1164490196658
73.87930649962533,0.2554843078963109,395.3420654100083
155.58752711177752,0.3152796516949689,81.88946346606002
-239.63749265184225,0.19400642866562537,-238.1700922126578
-82.99234269564042,0.22699931402970025,-82.10388980878896
125.6870727944113,0.17798319093160303,-21.35615540412755
109.2306555859838,0.21616382634956977,50.035542197456984
48.64185079125159,0.17043700100030915,-300.4868410870934
-105.7947915374828,0.2842506236890041,45.05004894392489
-216.49972206891513,0.2204605723723758,181.80441340212545
-39.56557610778693,0.18599875503590785,-65.275778808055
-82.3464633846319,0.19956019335870565,97.3806219168959
-22.091529147788762,0.2190784520083183,-52.86115158872546
33.61530007475116,0.1779778260824884,-105.9279107590299
-83.9484770958815,0.1378525896658404,31.972935701613704
13.149743342099866,0.1454468492216965,26.70479053961182
8.527533753837279,0.28992939989970223,-182.946304170869
101.7518225275295,0.20724904657226056,5.562374859890861
-135.0282440649007,0.1489234422954166,6.705197586379365
22.458904695270608,0.23713210242245117,161.63199099007457
59.280218627944095,0.24591885001192607,-490.13528494340903
116.95883736438503,0.21856793809130862,-311.03136855974276
59.03981809322344,0.14983626134937517,10.823717942006011
194.35250465031143,0.2269210859700612,-252.31724005605955
-26.50764583791237,0.14044748620825853,-276.2077348123881
108.26187592139722,0.13837347886972937,-21.646782866153025
101.41881467303311,0.2054507286669145,74.52523826522098
50.641897706649154,0.16690637872723096,228.32578667483122
-49.80693131250869,0.16751449805932472,-155.89481066343438
21.263207071223718,0.1982643049755523,-365.51972433202747
37.96118086017643,0.18239467093225842,-168.64415390626974
-82.3195160666026,0.1538615131922894,219.6194627276685
2.14940957279671,0.28228206044935017,-321.0478077839785
-266.1068708895849,0.1653491231204168,164.18147760837164
-99.40431673636306,0.2199123131670018,296.6283109793889
-137.3181685958712,0.16884917385667847,412.3194578557145
45.54093843627142,0.15844579099704914,-105.02158042089951
26.923959451626416,0.2538306271326807,483.42636027354706
-86.16923559153375,0.24639198660974723,-138.26430222761698
-11.501854102044415,0.2720343020081817,-325.356039742264
17.016292825832053,0.2763692966766532,24.581646569240515
-18.011272542296922,0.20291601181912897,-38.76650182402923
-48.68878673331928,0.20892680170633754,275.1556856771304
48.287132881134376,0.2232245965565733,60.92348876980276
-76.24804721740391,0.183983522919003,37.445101932586866
20.635796721157472,0.3011374298602426,74.1079426601027
-49.944602309083514,0.21680514133207254,139.72505408339637
26.21494606348882,0.20011598088495744,140.7062637382657
14.046350712534455,0.27465881132259096,-625.9313836927303
-41.85351667529017,0.2584483714846574,-99.48025765893783
-3.970250694430085,0.17975298057023242,-143.02649128525678
5.605737418400693,0.1679932890450392,97.01477278391776
25.492998220644164,0.1644976994842794,-33.57050176358877
156.66463722384415,0.17552245233108557,-16.709991129440475
8.060654986228027,0.12520025227094583,-137.02946809762884
143.79144632431985,0.20013247707501153,183.8859243975652
-3.5663729659696393,0.2611520975482125,84.90807694012278
123.20627235217441,0.19810265430681007,114.84407875690196
86.11116356314464,0.202674229528383,29.99465885646372
10.233278325369689,0.14905413365404468,226.23557356384984
32.122894067075705,0.167072833162815,125.22945133437882
-17.073434623519187,0.23970107902540916,383.07306249816196
-23.087717874129147,0.15720663924775294,-94.11020907880385
139.40352772766775,0.11727658128940067,358.3218606470525
-122.8313622306863,0.1660703455433551,58.738823869895185
31.164570853901257,0.24196877653775145,37.782418166269906
-77.90848904979563,0.19973079516607392,-95.29881496337882
-158.63250697440427,0.21926264916119056,440.2309550310685
-163.10366883585138,0.1429104587322506,-159.27548520458515
22.531698876214072,0.16341778243093924,-67.13953446556576
-130.94259226663004,0.19485018889366482,-123.94161612386281
-58.2871461012389,0.21102172819194376,-33.903387463263805
46.566400923089404,0.23959389610315907,95.30756197013544
71.95855252958265,0.18840143467532883,112.62380443779347
191.28556463962641,0.10071968172386016,139.43229793465807
-31.4629519706152,0.28099617089675477,-269.354015554138
-99.32429105641735,0.17083791487965064,95.52399778449572
68.09580157736029,0.25343857459037133,73.95804428404557
24.263638423763783,0.27679696512323404,0.461260257867662
142.04216515067492,0.14845482844283364,50.229022550046395
57.49814967249751,0.15556457088582964,-91.76157708548823
74.58851591294133,0.2867616511746025,343.11407428767825
74.38065404272514,0.19743538696923507,-8.19916645051806
-78.70672900894066,0.1427201177800557,18.161977766820208
-58.727511603226446,0.1841154963458696,-156.12106074122812
-72.54231283848577,0.1902051282889585,70.785466996723
-114.28232722850127,0.23767178179738851,-60.239319062335994
-23.493691873118074,0.18060336844896815,7.805324788958577
99.16929946384298,0.14798575652372947,-269.6684929471846
58.60924497843926,0.1567385253725207,52.55744766728867
48.78286751116209,0.16698257205676076,222.6359040125417
173.71489609656842,0.35471997626320345,166.82014518301543
-94.07398034674206,0.24303536369719758,62.01573572148492
79.87351020566716,0.264290649632155,-306.9053745212518
-20.524076111349906,0.18669119942416634,-272.719834073855
-33.6695984338476,0.18881219712294633,373.22269442020877
-39.01200830324887,0.23967331543717088,21.76821865705977
-73.97279034303764,0.21138278811954866,143.35512134248194
81.35354002822115,0.22876689806549735,41.72213260723091
95.49899621015192,0.22095601655441366,-324.3192045281941
-159.28999248445655,0.2285900308065889,507.17438404553593
69.07720069429894,0.24501511917684626,-441.55637886390025
98.31860027255314,0.30577247035425165,303.46016666110313
42.84058398516662,0.15731206559128624,-69.4171652843626
-175.28292886944416,0.18417818798013175,222.5547792517339
146.33741231480565,0.19436197559001908,-69.63422487820161
3.5883746774358447,0.21977036723302282,122.05334313349591
-195.00168732799278,0.1926693166673708,266.28650743691054
-121.72233235883394,0.18273261930449805,74.88156837831801
-198.66299365238297,0.1712446843447194,315.77251235801873
45.03946880626802,0.2617835220741861,-265.60254973509706
-26.072440652476704,0.2080864654119391,170.32401938101532
222.25554694704272,0.22768027671986546,184.42773507143403
32.5275811748397,0.20185308363951696,125.44487103013451
-70.0202999361668,0.12797251347034314,-90.8428667151823
132.90447906100042,0.22563885386390223,204.53272031249395
156.70358142622004,0.20898392651779077,36.42876448950091
18.389972591885304,0.13291079642416642,202.13685204183142
-43.149463276583916,0.30641426724380283,92.18844828383065
-53.56942197863117,0.31782521258741747,125.3251645757014
127.42108478853524,0.13384359396235496,138.47273571705276
-186.1340085803118,0.14665714958150167,96.07647322985198
-77.55524869465876,0.2098964966135935,180.27540512976464
-25.56413846033705,0.21668600447536168,-207.0955985084317
-117.1438698557227,0.16971418313246145,-95.62591034506262
69.43058514575893,0.2431979290318553,-22.260799652008146
93.20560373841029,0.15127001723293593,-181.61810340070227
0.3717566778658529,0.20012024518430577,-51.20933103909254
-15.101637075485696,0.22499238408961467,-169.91377210069993
-42.07172183758712,0.25604381297928575,-362.6981887564814
-7.5084151798201715,0.16062547277045722,-99.44046776009475
224.31433369023378,0.17395271566707993,329.65249580599783
137.88428831183077,0.1684049768810998,-49.496332807854785
24.648553603395897,0.18237258791794858,-63.117501953970276
154.68775431261682,0.2123736408423306,247.6974556957279
-104.50744407381403,0.202002492090425,-186.75169875669008
-20.555812264747566,0.16760687173202277,142.6664711934095
-2.2796349332499295,0.25933306249751203,-53.15479203010889
-90.14567132798253,0.23456795107384906,-45.502914229469205
100.45767880718286,0.18352874388720608,-81.8488502936328
103.97983483903346,0.24361289421072624,177.65225824917493
-69.99792372334795,0.2646304317812225,-191.55873518410155
-28.736368132031636,0.2482982810343638,-270.6407893300257
79.30188272061636,0.16677089648036855,-12.149510410024487
-84.76264275051798,0.11542226911462578,-158.4164163694213
58.953266304388904,0.10144080620146018,264.5152574006315
145.87367739292404,0.25886404848377426,-296.44803585144837
43.73699662650217,0.1731466692491174,-47.58358831322846
-46.06972405964402,0.25051176401358827,248.4198636487236
-69.29176866727298,0.19734790533528518,-18.705888831256395
35.66825452161273,0.19917858796194085,317.56976992635293
-6.6530382583222885,0.25601582182408306,-453.3384479376159
-19.18064947963914,0.24659519279236494,26.694507259481725
-32.47802342514356,0.1782909226251176,-314.5792484214369
66.73720466367232,0.16901868413242957,-202.69879956506463
-81.00584357766704,0.23695713820836214,28.67304750347462
41.41250222815168,0.2319415707976005,-50.70470764865033
-80.13719897988302,0.16912364460470605,180.68724754318598
106.49513999441993,0.1650930751115909,32.58888649599623
47.50646981831254,0.22807646568327208,-100.41294620807406
162.08176253237875,0.24069331989464474,245.72976378601606
-70.44374314610461,0.1465286698896942,-28.430244155684566
152.43085943064975,0.27703433258863475,-185.8110698900999
-156.57758870679382,0.2545805002694288,196.00920961734965
58.23298001240455,0.20367463634340463,169.51195777417777
83.12905474725302,0.2789825147661347,-55.7657619075887
51.64635982252245,0.2656085952419099,136.64400012051215
19.51520485653565,0.30684036004413656,-42.38415607944718
-165.41500389827476,0.12637093760670642,212.64500535691147
-36.86662383888663,0.23726478982814161,152.9274724435779
-62.653411080611875,0.17026164872351984,192.3807549719355
94.44584903859892,0.13491820993354295,175.20314594704595
-7.862893773086693,0.22892824649328225,91.91230592798233
-100.71922315296742,0.12223092485481367,115.4840718562368
-24.016086004263528,0.2147703868815838,-152.61951330531
-6.761068640027905,0.1371848469001033,-93.4558224103507
-14.06044702716335,0.2634438747580661,74.30623811680967
-165.81725345297033,0.17681084211311782,-77.62147097517105
265.19371053421645,0.13946483150845806,-222.01002612875814
67.9706375467647,0.18318440734758537,-122.70440630693207
45.796886071228194,0.27625153681750697,76.36292274963344
-135.53614696303651,0.13280045195234733,48.400677875470684
48.73567316230908,0.23424650052385698,80.95017795069056
99.9589459403521,0.3283246963982485,-287.5223072766841
38.81744064513767,0.17899331733385232,-228.11123599293873
53.07095864986022,0.25678990338276575,-154.57774899323238
12.330558792664242,0.18975121130732345,76.16729938513949
114.77372364371132,0.19010562480205379,172.5344957068951
-68.50306725972636,0.14017703297049006,-102.32662384787513
4.841794201306616,0.11184830784943674,67.14164633278558
-83.75797990668445,0.1719191570515195,-21.225800032717405
5.5460847253678205,0.2518526017181938,89.66721230241404
8.2987325102214,0.2648864384440882,-674.9134445840986
76.61244505976417,0.18068347414462405,-134.86212801752373
220.04315522399884,0.326357925342723,308.7636880628732
81.5837933522498,0.13030019628037387,36.02991498529967
-162.71105642979927,0.13318215348859064,-129.4996453883454
-145.6169717277016,0.2746899815988871,217.6549930986138
45.510159780443225,0.2505389216751906,-194.71695035060253
59.74754408531873,0.2413325031513964,-25.438724991551844
-64.38651567056186,0.23108410426205167,85.05751858318547
-17.435356136476933,0.256095327914428,-212.46362242065325
15.73228904670497,0.21985153886100395,-51.92421128710232
-53.99942788883318,0.13709547815607492,248.48097261082933
-147.4707085288389,0.2950477072534747,15.614122726056676
188.2620585192528,0.1634401576030843,66.7909070112979
-46.255075552093494,0.2678231091917535,314.255755212919
69.4593376926811,0.28861382184026646,-87.41346368271508
-78.2253507802368,0.23777213871395111,-136.06212084571325
9.737839594010879,0.2002696204604247,110.85202707769695
146.48016763034943,0.23775672651325339,240.77134347297272
12.459789937284905,0.21263192018484053,-53.49534782479215
6.255566120520971,0.1816050195325962,-26.763773648723948
-8.183360333615754,0.2909221683138436,-166.21562756045444
-42.66822490223437,0.16933471179965875,169.0498001645962
23.58815542460749,0.25120099551766883,-283.426668818391
263.914719357501,0.20063250406456734,-77.35095432230654
186.8452807894917,0.21437818453005036,88.42585649164167
-37.04862326642846,0.21608899508538432,66.82215965063547
-123.790219640403,0.21840692995971323,21.560536760338326
43.472152202087145,0.26455331065664034,-197.27995765780213
-41.778451046131984,0.24878507711361708,18.963769160228846
21.349974651972328,0.2624346350052502,-20.608991320615168
-41.79855011755309,0.22659382329974764,-429.53516931503
126.30919479350158,0.11241940819679158,-295.9646550330925
-324.68238840135666,0.2230269952751331,81.33923867099372
84.75684513552925,0.07290590868708954,111.38345572957991
-73.60368669661372,0.2387757725615543,177.30498684001108
148.8117684674299,0.25130407623554873,16.165635310469597
-2.9322666408905786,0.20508081993966504,-188.15141541083221
-16.477462007853102,0.2211926410882138,-248.70360742199674
49.28596259881623,0.1330667259781857,-8.002887164964683
80.04977634373994,0.22267575200705297,-61.21374095648006
129.59340602142447,0.24928367758091485,155.78301077343266
-64.93822894297057,0.17692010320319235,-123.01440506298218
-19.378363943373838,0.1876896624973278,185.64961298666321
-38.02854010258504,0.26454645526013065,-100.02193695588149
-26.709512023240606,0.21001488861122597,-37.69263258793755
40.32674656197749,0.2483922628138816,-300.44368022550583
-44.430025071413304,0.16489558867003692,-17.13141322093561
6.6882735833216955,0.2788266727455294,-154.28458083701247
131.03198259444702,0.19526091994004838,-95.13893769633803
-2.3490328394457065,0.06183592705649629,287.9633777458812
-49.55583539814034,0.24759790821846758,-29.596912775020094
145.77619454767358,0.20521997158189037,136.53155459176537
4.619643490943263,0.1556197818648092,-239.40366043338202
-125.76773295709185,0.24980647145341578,-164.84459425889014
-72.91810306506027,0.19542228830137173,223.06232677738174
27.717868502878485,0.15837872584999574,-79.00818929954553
-71.58215672800506,0.22234001793593433,100.23650566546208
-29.20742775551955,0.23228732943266894,206.7327657435916
-55.39294558339953,0.16121089229402255,272.2739426229137
22.2637124647311,0.2769407907380004,-0.2638985927723291
-36.12881344843031,0.22986191965409325,25.60706729947228
43.080564086909376,0.21475072861523023,159.95661755690992
1.418911482050044,0.11930844422950335,-228.01885548086943
254.7061570893999,0.2228583438041266,-99.36093877895614
-6.103237828710122,0.19818594367107514,79.89591638747517
-46.831648498681744,0.291262858184527,29.49685589136376
-25.37695901251856,0.12182806894314496,-149.54870262170942
-91.27311283170522,0.25344072338643664,421.2904566092343
11.175254268851791,0.2572287646339055,25.793916040877452
2.057865516684748,0.16619345514098954,43.74278820457265
-24.16643007824275,0.3195686626128068,-96.94870791023511
137.7880635727206,0.19563259861026808,-200.394238360912
-171.63675835428776,0.08821402110295332,-15.017165552761258
-57.51883965045984,0.15824704170736503,243.09295354868974
-52.011732358175564,0.2246096946852571,73.00609413656488
-254.81621148223402,0.17480070641095785,106.05294294766203
-52.94532077335534,0.24744025245127776,-363.3556752091534
102.66229580990489,0.2578259128796595,-70.61472092591755
37.790971677603636,0.22456567012443582,103.73248422218519
113.4368110185558,0.23216401681061266,113.71185226133092
-110.17423981399708,0.15940612946889277,197.30457413600053
-116.84371900089326,0.17017164614779567,-175.93212850570143
-135.46892437287022,0.16201729125015518,-140.6222044145266
-77.37070307936087,0.16009841666144106,238.33439283307106
-53.12028613630972,0.16931653084216655,227.13861558443477
-156.3953424249997,0.23252958861149237,-84.88918867018312
-142.16015316425964,0.20489294926129287,318.5590006004698
132.21206887444677,0.1646809123006842,252.95103027205735
155.17529143573034,0.15256824489826856,433.1753444283627
-94.45700681984654,0.185558037776233,-139.44062768728364
-86.70036412913905,0.20377439288681523,-208.35176910812842
85.7451547360918,0.24039512635583035,-263.26301996040024
133.24504261546969,0.14877415186704782,409.4372476662337
118.73801754486601,0.25028851440224914,243.42595706624576
-178.70002838274942,0.12856676769734382,-310.4654433429466
-24.77346892643582,0.18778665792472768,-95.49370370273597
200.0687415729335,0.20257678747109656,-358.50043874139857
-0.6830086982457443,0.20886894888782043,-420.7923396921382
-179.5443633524155,0.1769135896555883,-51.41844879536276
-54.190897101824035,0.1818357641408487,-156.47511975778735
-52.715942125739105,0.21672928655349802,-298.4249965110872
-214.7022052822417,0.2325346412860742,-423.96861771249473
-100.90975666402353,0.14724221724709136,-69.91012881254105
-27.114905837466374,0.1758737197751994,-100.21318552900456
133.2079391315125,0.17014846786171836,228.65154800367606
109.87196057695388,0.16605594878875796,-89.80867196760052
39.03883226509514,0.21894593152620398,-55.178177772737854
57.32382257980204,0.18817679927365677,-37.041595192394325
-141.70206289071828,0.21993320244962672,-172.83964763867914
37.74219897381262,0.1435596454849697,90.85124764985542
4.463500974172108,0.18570376442573386,215.3194276427921
160.08406177531626,0.15387137042573085,-248.05467757888468
106.3873379606691,0.20499481770208833,-260.6715433241526
17.576986634308195,0.17916071109569612,-24.999104504041014
48.23727089609798,0.2523520015678173,-19.61211138070586
-251.1446108631898,0.263704189638158,-400.5175948845893
-17.933923737359887,0.28823743862359114,188.47320557831827
-109.81526080991675,0.2574524443009192,181.8560923817093
-117.56947623179732,0.1811020088939337,-113.4193365879377
-7.903550521702487,0.17175485005009855,74.77652771451031
159.91543060009778,0.18234199756845598,134.75722996389598
29.653600061499354,0.24063160834627578,178.36542872340254
-32.99391589094279,0.1565875414949383,-123.1761112734847
-159.04774050581614,0.24307553796707126,15.020516168416698
56.166773170673736,0.19143927308759132,46.385634296308076
71.91917737751156,0.1962629444324434,93.44723359438518
74.29776440135065,0.19617661705869177,-244.78275975663206
-123.18142842390718,0.21305399142736162,118.74758180026193
112.09095387138346,0.14992095475737716,-436.5614346045741
73.13439166641375,0.1564549747986104,398.77042739819865
30.35826270552941,0.18637613682780163,-44.00545833899345
-54.26453729802591,0.16955913039826406,-20.634849322375747
-37.04982772042735,0.1967993286506077,-58.80322389450949
-39.49105084514325,0.2160318309157234,-91.77775152480847
-386.47111672724645,0.1935028061395816,-310.5822484635286
52.54510475203573,0.17051143090317303,50.13005024251799
-42.97425613809711,0.17335342442993304,-274.0804760085962
-60.19084393699221,0.1277807931563901,-313.0198080466701
-85.46746360698516,0.1775687663304198,18.347449977833396
-7.7576466924171115,0.23866960894471465,-71.81652923695154
17.87257210152863,0.29976519199286233,-79.61968739180406
-85.90022795156968,0.21344371141414334,-66.5788459602506
-122.32510661985168,0.14454900456226968,-134.55997727966567
235.3686662242563,0.15330516087679463,119.08151983986339
-64.61852378696992,0.16867204985353884,-259.3266685964549
38.58080045073911,0.27135705216152795,-264.9550595679004
85.64622811354478,0.24356666364654536,-301.089209690227
2.8375534903449986,0.17505662809285774,-215.52952060615848
194.20950977382256,0.1945811413146772,-15.963217256258696
151.31931520586585,0.13730731436799454,-145.0631553517749
38.91506366633404,0.2842187284751309,-192.24711817435525
112.32335241707435,0.23448721065153652,-91.93052428037551
53.77875843611749,0.18896080866730677,240.9685926291213
126.47140777324842,0.235883694613998,123.6307158993979
94.21348880945696,0.20710554303440562,16.495310204386808
-65.49266278098953,0.2786405804304763,175.08404230553444
4.994258196549273,0.24880966490782638,-297.01814427478996
57.12983174789189,0.2706547798088069,-348.3026584951652
32.82983804133952,0.24919457536564346,-185.4878351063176
38.15039735578936,0.17903779619489157,162.85860764842835
-4.167049621669446,0.23403641065180977,-352.10069340791307
-46.46252017506554,0.16714078066224025,-170.95394958430492
88.97754264137745,0.20166768347704395,192.5245236984456
-5.011836710637457,0.1736438015433508,38.520728795684015
72.97585363997061,0.21481183565262643,206.67719520543014
-9.351534852556806,0.1775039752792519,16.757851423149088
52.67913459968584,0.13115763858793467,-433.2468471998507
-129.7585121829226,0.2665829703899891,-47.103881312181315
148.694566213813,0.2070383623803821,256.00324010513873
101.28384597660201,0.2253743988051691,189.41095088972267
90.05886184670602,0.1829764566850063,323.08054236821835
-88.45297030660278,0.20919361458750002,-217.84069048742487
-91.32407219003696,0.25050759698036995,-152.7259125726084
-21.49054260397474,0.17625790956112808,-190.82844279618047
-76.63670016624279,0.19579345335785953,180.74868334255567
34.517555517455726,0.257212362790204,-32.087391154977055
-249.72423098072986,0.1802971239753406,-215.3807559716936
-2.001397078343468,0.2695873680691569,78.12727496761306
-45.31130766245358,0.20858768249091944,89.06407629470496
-184.5813051641508,0.15018966536103714,-268.6636144541873
-2.676863543846344,0.18341025579305353,251.65307326428126
-49.35005053679536,0.2413211205689329,-203.02449156285954
71.44538519167544,0.16760575819054832,254.11911497660174
-99.04303539212721,0.1983487669510077,37.74648377466065
115.42169613293412,0.12069584456174653,-122.66154434629533
7.596254049237149,0.1693130350794389,2.7812604523342173
-103.84557644017183,0.2883794196503349,-158.47976340448028
98.00555467747988,0.16716999131560475,-5.487085556075808
-120.35666701338819,0.24758759082651804,95.3198850202003
-189.25981240841998,0.1938527742533778,94.28986746175852
93.01669944922318,0.15804227804500282,1.6565915306448125
87.42785337568651,0.10989220572613374,30.62234327875598
-202.99726158433148,0.12447785137500293,-27.17773124195555
80.73598873492361,0.25182361516416146,-131.7837141805738
4.4028984728653215,0.33606576258386056,-219.55903767693496
-33.17814088315529,0.1664525495426565,100.04570996099731
13.796768752999164,0.12227522958701342,-136.93284872500092
-115.0962238220885,0.1430072739883859,-104.67487471792813
-47.67706510619594,0.21700435919214067,-9.735673597403503
119.9028253624908,0.23500591645803098,215.7279527338011
142.42866412980948,0.20920216851582482,-79.76637070348407
-50.62855088095793,0.2927652023315056,371.80609910953274
3.0178611640390343,0.16994865740810625,-16.612250598474436
-5.270026652186566,0.1459416051441222,148.56030944415238
-22.553023805042695,0.25970592402042425,-360.9136751920526
155.4738897781325,0.17852675151419162,514.4526455501652
-159.12577520071702,0.23871619418670664,-82.26249871573309
115.80903116012946,0.2179186889965267,256.76912683015365
125.03498781631342,0.2030686603784914,32.964157412138384
69.82154007736992,0.28418630077179247,216.99259573352555
-77.94106911841432,0.21845974084956893,13.078682752032055
47.2661649273731,0.22421978062449133,20.06329425885038
244.14200999132962,0.13399367755544878,307.75227592263576
-29.584177367500907,0.2315634917436533,39.16226752132963
17.55040566726077,0.26275637514157635,-157.26418204717737
39.8981918832742,0.23719840492875338,33.484595047803595
-60.80206307416596,0.1789482257666518,64.93148111026485
-156.35928903466296,0.17247937603502028,-107.23653586614685
-65.91897818999466,0.13436774863506717,-91.66723385270475
-46.14126007112284,0.25144265833745927,-36.42511286058126
178.44815431921845,0.23545326317480908,-126.79238062366083
35.26582324147527,0.20703688749553695,-28.905065036095994
117.97305736220845,0.2676345964143511,49.43045633172609
212.3580556228353,0.18688390382516118,-645.686929661597
50.540360404454965,0.25546187245576546,-325.9743487045445
11.317307275295533,0.1764041450915794,214.93584220236747
-15.895506103118686,0.2453181810323799,-165.71489147247144
111.84750867807693,0.2759754322687492,272.42890970186806
99.04627031400905,0.3391053346325732,5.416006614600953
106.56853805513428,0.19128960485932553,-54.52382724832755
22.5040027597007,0.23007289363712444,213.8617580300904
155.39057463225225,0.24118132910152018,210.1799345082612
75.97631393672616,0.18142396955190496,-0.2648892561104687
102.69123572894507,0.17249408235707026,442.89824639413536
132.43317445082099,0.24231031106702874,300.7264252770045
50.045392788875645,0.21064764423353488,-260.2967968618728
40.070661245774694,0.20142517998575352,87.91334943359988
118.66313516221085,0.14057134458953807,-102.24485346712959
47.646736412738946,0.18188795570513033,220.40677780041275
63.847488019865914,0.18364737038401935,48.581673960707676
1.8371924508741426,0.14680437919971792,-37.19778304799512
-5.0686899363635085,0.15430065349050395,-19.38491548768241
119.19876833793721,0.16567730312625317,-137.37060082280544
3.7175891468629834,0.23249368681682023,12.796269567083693
20.492466620119846,0.261590257461939,262.99953315641073
-98.44747186590592,0.22283177366050258,90.95723450755277
-20.737462264623137,0.24889671339006628,225.99525459965167
-4.528883214202666,0.23353420437539085,-35.66343590263986
49.766094971849114,0.2969195928266989,189.90963187635035
47.65081649787619,0.26376385435667005,-448.2672361402979
128.5174220077939,0.13253946431890795,162.25234384201764
41.66690789895873,0.2644254974191598,36.957870718794815
-55.301234139555966,0.21862643825492656,148.28011311586005
82.64656238733008,0.08066005165645854,207.19321554226914
115.95198978056864,0.21487390660213435,35.28748597588417
53.5314527295236,0.11202989060882061,417.66454211910514
204.53818894101977,0.17875679075242445,37.51552270392827
30.764029904073332,0.21827903327749051,-172.37246588030197
91.49497156562563,0.2619318785606984,26.774042562683086
99.71082315956276,0.17799709003674147,-79.55428331468761
20.03432885426202,0.23504186945368516,135.39684824009598
69.61905418480585,0.2528011300675743,434.9549235675654
-186.81435225890252,0.2245744758586413,-17.372174248451167
135.6914997335385,0.167333622952119,0.9626703591253132
25.51986153109782,0.20137088497152303,328.87741294002757
58.42387601732153,0.1706186022277038,-213.0993162643469
-1.9502119702574447,0.24127653476791605,-81.78534445808955
-137.58334443636105,0.260142274658435,-98.22213368554313
-72.40553591257051,0.1597102803868873,-133.73355135902057
-23.27635064528274,0.2376724176559504,-212.05667374235554
-24.8994123445584,0.2173183945429792,-275.93826658611977
-113.7488534426588,0.19716892261448854,-245.71249234858635
100.52185729076758,0.17361107387825148,147.30608004373914
-38.44807231752038,0.15377552764238442,-68.2720078526079
-18.67789311739494,0.2395789503709903,244.53729193847994
37.396938581090396,0.20263967679415418,5.84945182758467
115.27859054500904,0.215345587742102,-378.31848788419495
127.0750510949049,0.23941140903907468,-26.893054844370397
16.38174589946811,0.17573346645270516,97.31910577686466
-118.20546451686289,0.1652746472731756,34.490249545645995
54.72093531705872,0.20494308192322658,71.07057282971748
-72.56351254417675,0.160814459569196,158.9836450085142
105.94851048295,0.21884114492313492,-12.183115433489855
24.05916766100389,0.14287260947695335,347.0163170079304
53.99489837049282,0.12196744171865052,-55.65228378029576
-98.84151500756074,0.1757830101231869,151.38863062727742
106.86845358722763,0.12045901771750661,23.36072815243519
-29.463281450496087,0.24164152035106198,-141.20973380963147
-36.85706915158063,0.18052944245415034,-86.5907722802561
46.01430744344468,0.13577345588320328,103.73318703350822
137.41321723125978,0.15190639887416832,-196.29988551487284
-121.49730726312877,0.2577284699544973,218.68288428693035
204.68314303829328,0.18234353829491456,-255.32197559828424
-49.86368264096282,0.1639027195839268,292.0213208244227
-99.62907687456857,0.21534183123599976,-96.60325115453931
-39.65469586907398,0.1744259873484665,-72.22364346946473
-85.53304580859168,0.20980677346666368,289.58702182236607
57.19036022401829,0.23528904659521596,-117.2979263493667
-34.63644434854487,0.1695587712314477,184.47977241753708
14.679085068818281,0.2523644301886381,295.4003043793529
-16.13327621069545,0.23188212799641544,102.58705610574896
-85.72177772481578,0.19754980513063872,82.85772451165893
103.92739495183194,0.1860213645999081,-198.938803616541
-112.29269755500326,0.20064000663137907,-531.8969071615707
100.89728518905116,0.16900634123161817,207.45211712164098
5.353778396754027,0.2276067897286546,112.52858247455298
-131.57327469196926,0.2943471020616414,126.9752169292796
-24.425004290511357,0.1608481440631301,-88.51385670785064
35.954446339053064,0.2525574108960467,153.4006586104183
97.02986793013638,0.22338281292604306,263.4880250989268
18.598514981490393,0.1606266994875893,487.5075996636094
-135.597213775863,0.2495368924321036,-105.46053127160253
-89.15095341461132,0.1409515459111008,167.8048085327896
-133.5967010243062,0.14341433676583526,-148.3502867570696
24.641617614961635,0.23281887084598757,172.869687833334
-3.4474944474941553,0.07782175123486311,370.4186657300419
-139.48569948593962,0.20056582380951313,54.94378374362625
-54.8381757419024,0.1833362710673571,125.30164351350221
46.42106946352848,0.18234861810961323,-13.647953460791054
-18.8729104056965,0.17741795923388956,-32.83023748845397
-29.44854235414428,0.15980551640290175,-194.44783654872367
22.681406632861812,0.14557636314672703,-89.78865565677917
23.39710394130782,0.23214349235308085,68.6184158334436
160.88765684494942,0.2731985010445785,87.29668248751614
69.21636560790392,0.26222547381085665,-63.23991742651699
-136.78524624349492,0.2235132615704161,-172.88969359356943
-74.59720182718837,0.29083686730590963,-248.28827762424118
108.09878481713694,0.2329528270817065,254.84039252307068
15.242092446671599,0.19162942562144317,-153.40408725980188
-81.14169895315145,0.24715508501546687,-188.53748978524106
-109.43280403178382,0.27907475491753164,257.40202499905354
97.37014702105218,0.13615392453715436,-202.39692140779314
-86.68082597797313,0.14826966435888805,106.30187275096023
-47.517483028809934,0.22155401426921933,-185.6133842740841
-100.71301149191088,0.0965831116401996,-51.06239550994712
65.46468408848463,0.17317902282082456,-160.613624372721
0.6376347152882568,0.18692229425605278,348.814930521405
36.58195185623954,0.20885244287305393,-2.1068755619228914
-38.72338343218485,0.17884207902611818,-115.82943345795354
-44.72786952542075,0.1930355081827902,-270.1637930356555
-173.49956231416522,0.2020424070261383,309.1650485405003
45.097375367570145,0.2264588474546251,368.36286403490914
-35.44242248517263,0.18415538261803613,-28.25406565985038
-22.410735812028687,0.1674742065063291,-205.06382816178692
-108.35885734499963,0.2096359528116534,82.61257506524674
-0.6492632404493385,0.27140661434094604,146.27432365316716
17.097172449843676,0.21561694495223047,-93.35839119145352
17.497566304325627,0.19622532730480705,-34.13895048519968
-223.42572403882085,0.3075095833896296,86.08575829370221
9.360438688606457,0.16873266678026602,-177.97044956363317
-168.83870666423852,0.15111072494034825,-349.4210865687082
41.646838359381356,0.18702396303508595,-324.6733850065853
-52.923702226426684,0.1739658870174847,-13.319693082121436
140.27902565118026,0.11666813165497165,-185.50624793627048
-48.251163329285724,0.2419266611294566,145.61460458233233
-53.73431505913896,0.20237671982200237,-238.91295878531454
147.9514426513425,0.15927868109197907,-238.8983046203774
-8.929256610227993,0.1580715116349699,67.84595655184765
-61.69209416315837,0.17832842512941002,57.49257136794761
-75.1154730234632,0.15145453397580125,263.99767808319245
19.448678538304833,0.20148179453618417,-169.85522743271534
48.16077655267802,0.23066906611148932,-184.63407501945645
0.7656075100812825,0.21679048081665983,-72.05038695662311
-15.640564635961733,0.2971140950218838,355.87018172711964
118.80905371810069,0.22628441038779817,-109.33402871471128
76.66309877959327,0.29550360864596215,134.08450092083373
-208.01389508505292,0.1728023046159392,79.34828751075777
-1.8955815140006118,0.2602680719742862,-304.616362999524
34.62033631365928,0.2700139725647158,70.02513141663653
-99.84018837328642,0.22732087117801492,66.79831785964369
28.006343042276654,0.2261931906321566,-5.618225927472283
-57.22980229940375,0.20455008845697367,131.66941697518672
109.68943880656197,0.2053049911910168,-66.86325364678018
144.0336804509184,0.2133006110817775,77.98039266231115
67.70546643840571,0.12622436894049122,68.18528602554849
-44.61730189180192,0.2146685873461155,-65.20975883042595
25.965027563401854,0.15475541839606943,-177.1902257609644
-144.0542879782701,0.23775471367778828,-90.62956259371508
27.452043285641697,0.1731680141169716,-8.376263827812986
-95.40142650155967,0.2383532424145611,-148.04678579711683
139.38674267689132,0.22301811375171446,401.97793322863606
-53.60718056536654,0.18071657112804457,118.60396144590403
-37.288731552371495,0.25159247294335235,-212.279286563556
84.457848521747,0.23531652751325022,226.84933915907638
-221.23471045519273,0.2622238981542393,-315.74762904900615
-2.598521521106539,0.2141532843440145,25.948839956487333
25.549897322609166,0.16500263097466172,81.27782532748822
-128.83152732406867,0.19792747080390602,181.17863644884176
117.55772973808507,0.30172125350973467,-317.71805733126735
-18.259289188143303,0.3051705856738333,147.7000467727599
52.74552876788472,0.25890438941621563,-174.48740304884717
-28.923489091782468,0.19139686073417714,-115.70538351052755
-136.37320593853158,0.16610758947846854,-96.00872313945993
2.255136043710727,0.18588391699176568,5.620882552460797
6.372425431854523,0.17709864709484383,-47.74365093286595
80.58884251287796,0.23738633565411205,-100.33994787032485
34.805805267884224,0.16065267619727303,119.02975102687152
-68.03208126334465,0.19942733793095055,-75.13888677598202
-152.3062883980743,0.21082715307078995,126.57775598787457
10.384014854931916,0.08509748371930886,-20.376094387955238
-55.153264677512496,0.24060211643847546,-16.17371479187009
9.887271094404218,0.14658005016184236,200.55820319817045
6.08507554703751,0.18201225598824827,88.63155290706017
108.61112348718987,0.22376678502987174,85.72402601038988
136.89825298205005,0.18382511386279007,-20.59554538991518
-49.65726066307226,0.2498113315642585,149.09476110687962
-84.02629141633346,0.12556379439413462,-323.1946174461771
-87.2574815323945,0.16708009678415855,33.104507972209426
-174.35351101444837,0.17737311152279117,-5.451661617475115
135.79059289702866,0.1762581288380712,164.14488620608788
15.597693532434478,0.18023526407396293,-208.38668585733762
52.611862149236586,0.18506999770951388,315.4543329219597
47.31211576009156,0.10353490835906033,22.687217801627394
-237.5028407369566,0.16453863260031687,184.81089033351174
-126.27787634983727,0.14736982772073348,62.411359446696714
-5.486073718356867,0.19113007861014272,-518.4938264085463
-180.050098952627,0.19864148253148056,23.521022095763914
125.3505614918079,0.10987207306227487,-129.95883908480786
92.1009041025969,0.24137793194091917,-234.04164876269783
-45.610723565042306,0.16867425419828957,-208.86468763553017
69.92713212450954,0.25532555390611394,-68.4586618440569
177.15388141324934,0.15331525814736469,299.2379865692968
-98.79420129960869,0.2355205061973219,-66.56291898199697
38.12085959396925,0.2398192659463504,-165.72292288348973
15.939545323248714,0.1823575270583959,55.9223506156869
-79.9929657117003,0.18364202887245384,55.87217701443009
-7.511148467539885,0.14014470393446174,185.1835929153504
70.58894026327243,0.19201756694292132,205.65512315019592
-66.89257940890481,0.1623968427823907,192.75303863286902
-19.044506339153873,0.23193356819177033,-218.15832512854237
-141.32522240573851,0.17825472034670486,-118.14667404377954
-22.127247235688305,0.22414450177521045,129.6414185798612
102.65439952463136,0.2116381604323485,45.06805831404287
105.55744042906437,0.19230646652176003,8.736306556237619
-256.06542698044615,0.21066892875562418,25.322057024825156
8.4378525105703,0.2495150370520016,84.33148247358669
-44.40000962993189,0.21564792544165037,252.45900750923505
-130.48423640955818,0.15878123091974758,-405.9448886586213
-54.968033019209805,0.20564261816717588,-19.81941086986638
144.75153984110068,0.20629668960589867,-4.516450912123251
-128.14567361935582,0.16870857409854662,514.0866049841269
81.70022008427208,0.2851804492100882,3.8415882875900746
-79.59945265871309,0.2148193786338978,7.5214761020669085
128.58913983370823,0.26097343468573586,86.4733898732278
101.76434869276274,0.18786662105540183,27.034902744217653
120.79687423458591,0.24661745223110917,-362.0640496454652
77.04754902407201,0.3217099484096485,28.665141045834687
136.65335652561842,0.2592033122505787,42.908860823762254
3.762055099517979,0.22022173670646314,183.1636452058384
-73.15434021059176,0.19688288386947414,-25.360129898522576
-89.03924775013864,0.20197964787160794,-7.99658856490905
-98.46404381027973,0.2478595840969871,373.1889990269016
-142.08274353758654,0.2065321374462933,68.99613402858903
-95.35729351444628,0.18434272812615043,-3.5848260795614846
31.50538663619783,0.2731533959397452,-222.24141084677137
-45.26585856766767,0.22986446727936544,81.7666505919186
27.61513474839371,0.1577906123039553,117.87784937544643
201.12524909877916,0.26124336888609284,131.65466477732454
-228.6603726483485,0.21687584393930087,-178.33954143562403
-22.34409834232165,0.19682724048431413,111.09868494721292
-160.0557472445332,0.2140240966402979,216.01342010015935
-137.12936464294998,0.24031331046590246,-137.55947113751284
106.4390742817708,0.2608839583898497,-292.64594059655747
98.46016478053292,0.2144306192508626,-212.64491227394095
45.1927320502499,0.20022973865568777,-6.939167953564813
-25.68116376369941,0.19054709433283384,-54.72161856002202
-50.96549940412085,0.17858323740039184,380.6935071060986
-186.9358037163201,0.20705546337627398,35.52049902993735
60.452600290850796,0.1276028930838634,136.38195144441215
112.78690673244054,0.2223189718758805,-341.40811577881027
-61.08601533232081,0.19196454276369493,-162.0770646280078
-80.29597219584491,0.24079144714462478,-127.78546603383816
72.48622460968816,0.06299710844307882,-151.19383539624002
-2.1606037621157075,0.14528335158137995,173.83827920616665
-208.7753695883241,0.19776294590550494,23.663967208833117
-85.40806766228064,0.185870418548228,438.96609227224144
-16.58745665885656,0.2648852354940549,446.8136616275953
-184.01932664685532,0.12256971872638998,-291.78362921910497
60.21020364840335,0.24033183430041127,111.47109790255973
-116.21023575221318,0.17036177585163942,-27.421793385360825
-41.29760502319214,0.34864566255774054,-192.09156014272807
154.3257777558489,0.20301805819878363,-166.52947472279251
14.06944877821478,0.17939080862137993,25.816315773687403
-76.76914258372875,0.06998584164563032,221.62232792007538
42.73932535821211,0.2699065985224467,271.7806429288285
44.67132772904911,0.1732972823411028,181.42486717483
-34.744678421908304,0.16962391745144376,-212.18289542258174
19.039813273304503,0.17586769264495494,-95.76199755532043
-1.0243015875757915,0.16100662562536633,12.11639304634327
-68.20368028616464,0.12229661870753629,157.56142921615927
-23.55644021160012,0.2062419181206737,-273.2580194671441
-25.59217351418514,0.24456905854695493,209.22967184170523
171.20046227193885,0.2601486586560056,54.28268184915156
130.86989707627262,0.20157700457362532,-611.7099550436297
82.45108662975721,0.21117730916723357,-11.350930288458162
-2.2162939990937205,0.1757080603553688,-133.42167826103775
119.34104067431501,0.19893195411262096,308.61379002685294
-138.87054651842502,0.15864272568804044,-218.34020408892525
-144.1720186672462,0.2675844396021032,-168.11768617851786
-154.9448836252315,0.22908082847668482,-346.9790402864176
-8.76396300560985,0.24007373441056717,141.6541757238588
54.0473235340602,0.23528289412297637,61.44873275710261
79.59391295251746,0.21566873301143394,7.732146785985466
-5.472304116629318,0.2020233435069499,-47.820714072183854
-106.71336784226268,0.050739517415468505,-177.06068358106245
-200.68461222520887,0.16769164801722314,178.81035978640554
198.49013214245207,0.2597614756642419,100.27486587338352
-2.0641393440013056,0.18126753908374887,-164.52870363099717
-13.089422456012626,0.30249435708147737,15.867153254664569
-82.53766097483702,0.1434820246900158,25.500411545219244
7.986819576260172,0.2542342941955247,315.82246742933665
-7.7391261955350314,0.20824097514290676,-226.41703194819206
5.097952223742765,0.22977774262493458,-42.307794196886874
48.841133421140675,0.20772636517083862,162.2200741912461
136.58860067206768,0.2188741912057806,87.87062078801118
-57.837221644524675,0.1025423738013878,-389.37319172975145
95.78633175132563,0.14245982925566356,161.23689265969637
45.57841407980596,0.2679236132377791,88.30557785168513
-33.51758720685063,0.20140018161572476,28.292498267668638
94.05528987136462,0.18262959229558645,74.06399497451326
162.82301920340464,0.24736448254495647,-198.16722947914567
-85.42799942334162,0.2901081384401703,108.13164441836341
3.244627165051129,0.14680279043648276,247.67320398883462
-102.16009032963704,0.23188656207059466,-283.642202233542
14.868526246555477,0.1835644720171466,166.18111526648389
54.21621722239074,0.1737197356109108,140.19359282576323
34.184554683111465,0.21348643601143902,-142.12940222275472
96.4381260410759,0.1592684029204237,-97.3342988835032
219.24213551254383,0.2618046126886815,-63.87535972200777
69.9940227159119,0.20844371629023437,270.67549094491665
-157.897674797359,0.20793743617501326,-335.27025780036223
-0.06750966826052847,0.21315632875258586,-281.1128572146453
81.36936996832993,0.20526203050032282,-109.86215028139472
97.34180420809273,0.20564097251546376,66.87790086075685
-109.25805049278479,0.2443463396210924,-536.8321923018432
63.08448716043393,0.129236579375601,-52.013286590121965
23.17974780300108,0.15073643533528686,232.26730483413124
-74.7179205258094,0.24323473008071939,83.76564696124996
-84.56354623964386,0.10469829836729558,-75.44250408977209
64.13076387389515,0.15371464703638835,322.1632368054536
24.12675660149143,0.24667200476969062,-20.76899770840274
-136.87506126721087,0.19560847639540335,-134.10797915714153
41.21540875860713,0.1286388747806936,53.02583967844089
-21.206890606240343,0.20364128099817305,-54.924947930032296
-41.51404243105256,0.27622219474510845,-28.82474535876035
155.1278264485481,0.1485616714947073,35.89290221025378
-78.81183414037464,0.14044873641634728,-179.23401632409005
90.18625278889392,0.2261452306163264,-227.0521370358887
-10.82313384769489,0.17939693515887387,327.6119550409904
8.85213759366654,0.1455459031870506,319.72535171616244
92.64748374336395,0.21993620556358182,122.26518287422992
