3.3643673345293177,-36.32376195106669,-6.212879473353187
-4.45235559008092,15.177440281935706,-0.40920389083227615
-5.863961802812591,10.229038293175092,-5.51263442122247
-4.376382900142033,-16.627935187356137,-5.10230253512751
-0.625634946528811,16.042338304381715,2.4720335249465055
-2.234198281418816,35.723909805130795,-5.554628040371698
1.1086263257235194,-43.18257314965214,-2.1773406396847084
-0.4950841870461386,5.258997362822449,-0.8829246709982315
2.7423409004086685,14.79681856247364,1.9754787773052898
-1.2482070268219188,-2.584192418541595,-1.6117616801603702
-7.528451439710377,-24.00259788063448,2.5588945844278954
1.9547794086188957,-14.907247680902596,1.866114670771609
2.0576519542279597,-4.926499261401034,1.495930140935922
-1.067778862051103,3.811832490885828,-0.45272218809436343
0.6813771557792868,-8.014941075815022,-2.739291337889396
-0.6798940905878534,-16.407786380120246,-2.281589103723396
-3.3969521035825574,-4.359221714184697,-1.275106012213177
5.527926583817675,0.8950543351154487,2.1134080844667733
2.7748917092835073,-3.479768784970788,-3.5739859399605853
0.4203478150967862,14.256404862784796,-0.6664205818207426
1.423888636655876,9.459046604783849,0.5232359705530856
-1.0621305925858027,44.305032649654834,-2.1383349257276976
-6.932199327282372,28.0546159319965,-1.5047497670422203
7.542834554500913,23.135734087448927,4.63711940777524
1.8409016936914093,8.94599091236261,-2.6007089781940453
-3.127531228769207,11.608980393594955,5.38499198170086
3.5020768819730685,10.84600170036789,-2.2509308005117554
-0.27716719360389863,-8.677012102592515,-5.172615245099339
-1.4129718275754175,15.037574276775423,-3.4934641474282375
-1.8207342863966443,-3.6766234411925973,3.098149264428056
0.8318415509229065,-1.7859974426238634,-0.6166004533820949
-0.06259819990897054,30.457371136648618,-4.747649482953202
-4.99191017335306,-1.5227768389918142,7.9619603634268605
0.3314735353467706,4.19268221681481,3.1555776014705845
-0.523142449539968,-4.97423693837155,3.835192424203466
-0.3931065103260025,-3.6226739637265784,3.243111781149892
0.9916140016218316,-5.914354709878857,1.0010240677361368
-1.6548988925349895,26.378952682525956,0.18955741341321483
0.10968467558316933,-34.67032455976704,-3.5858708958746126
0.8685920601094652,-1.9606635394565317,1.686561268484579
0.0742938096661715,20.731039255730924,1.3216079372567304
5.600169334964183,14.87629075525188,1.9529929990420556
-0.23590810499215614,-5.212295832620919,-5.283259704572137
-3.4172037968519966,22.708103053194943,-3.4189743530368717
-5.849500797606318,7.468915096241279,-0.6535572191921518
-0.9757624905783033,-27.54519738094355,-0.8375369988058583
2.885561799780359,18.816265208645984,-1.1124109454393996
-1.6548663248495803,11.25132524756749,-1.8708650475516881
-4.7536884709688145,-9.20801669857725,-1.070006342517974
-4.323471127433957,-14.046924394393592,-0.12178259148309407
-0.6177444894864623,-7.4577547927253995,1.2077335842711228
5.713375077574909,-16.67323757444494,-1.0158397570677467
0.2989032401402493,-48.617903636988146,-1.2153042181776545
-6.4597591485684545,5.283857799656675,-2.1609440202088543
0.1172915737773596,-15.639038425592986,0.7631398464010958
0.26625590176050234,-5.990744106591324,0.7117573439340726
-2.1736672701115656,13.203022403952104,-5.340104342379231
-2.325210401614535,-8.747645039002949,-0.6487356541651627
2.833117786878664,-7.891743567495528,3.829953342891758
-2.8563883676659536,-26.801725437064285,0.5949112531876484
1.9323274612025827,19.382027916845466,1.670912904582921
0.6973744442030004,2.6205319807299583,0.6870664088884839
-0.9850850025060972,28.776652494096346,-3.0479061687162163
-0.3973603788851377,0.05279532772530704,3.442250012384428
-0.23341863752407604,-14.479287636113998,2.0935400475913015
4.471848395892905,-23.42116562366745,1.0853833144599212
2.3754028774202625,-1.5202525536123894,-3.907856061870208
3.141588661293813,5.663152617321211,-0.285286662660734
-2.581830346663073,12.613113380802815,-6.260967559981637
2.8594751140354298,-15.51796253092364,-3.251691713742598
0.9562604515556566,-33.64379378731689,-3.3890570217863383
3.779271830345902,-29.337708759057083,-3.3278816393461135
4.887743086530192,-3.40656779264872,-1.753290777670761
-4.643559081820143,-36.61988516040237,-0.8410329341908134
0.2606241528187508,-7.522795525600875,-3.7583819191741257
-0.1722747227929992,-4.476575430302317,1.0779787419954165
8.097452282770979,7.380347306008606,-1.1516276978910438
-2.33822132571543,27.173553428991333,4.36022650316405
0.8460943684838227,-3.259049715705332,0.5268177143288632
-7.111672832480406,3.480156296317233,0.531087306788306
8.383207688029644,14.376863869219196,-0.505961178093166
2.767157924272847,12.697921633954593,-1.7751063020052753
-2.8489123088814403,-18.702292600277108,-5.32505068098502
-2.1304842227486542,-17.23738718218612,3.461045783944812
0.8954148368486249,-0.5468423376441423,2.9219308239949053
2.7019635829344186,-1.9707133016773404,3.2269179092273017
1.527615387682886,-19.472925644428912,-2.833220075829038
1.4935705351537865,-29.39947076348631,-0.048970951825324016
-1.1602802456421475,-15.590102522176394,-4.88823967617871
-0.6386114810054688,-13.212404466230865,1.6587456807765408
-1.4378681142398193,16.54996210042295,3.503941116235621
-0.5304158422447355,-3.1222589758072505,0.13858912102100737
1.718866149207001,-23.9877614452859,2.7675371359801297
1.9782389818304358,-3.3508791484134273,0.963546452747878
-2.1741310514564676,-22.367886497490623,-2.090324665374144
0.9644520431163712,12.685779871403732,-0.21959255769738084
3.3567403291147984,27.757593985415028,3.176060012984419
3.057621562996483,-2.0925794860518354,-1.63708317609202
0.37899235850195645,2.3699735561476447,-5.498898253097069
-2.2397804245759114,17.09910597037683,-1.904844493621733
3.035898947507865,15.050710135758965,-3.375876368149205
-5.713228130582154,-42.3561485862228,0.3202014090252228
-1.3827052555394646,-11.747831986654575,4.61894485611017
1.8392770966515024,-22.28836118092105,-0.9534766309320603
1.43213395905643,18.941342901269692,4.959093659660356
-2.6256929843560197,-29.704002295243086,0.23344408905411165
2.157047780308654,8.57393532952318,-3.454352465247508
-2.3314878020252294,30.58237382717924,1.884446760190498
1.7037281332488752,-17.62829156315734,-3.7065290071635584
-1.8056912275104704,6.627695692174667,0.36346855838965075
0.8943679039351574,-18.06795442370833,-2.0849240537759175
1.3333455150310025,-26.986383449964684,0.05285492619316596
6.581036433302379,-39.01963614218231,-4.449407910853929
-0.18029228360409094,9.179803976584765,1.2544940494797798
7.017293111121329,15.837229393808798,-4.443104452217655
-0.7767521955615035,-11.781680398040876,-2.8203821404048326
-0.9538793351228932,56.52479458999426,0.9841795809842973
-1.3492226250296955,23.925295392045097,-5.463555966460246
-1.338118628516471,-17.722493333253748,3.4366029404021026
-5.27727674778387,19.099579241239695,5.83800550472954
-5.466102089052055,11.07437939539225,-1.7997579905544532
-1.1954845016424138,-5.962361536386432,-1.5415429595774073
0.5246513570312457,27.557924249114368,3.3649620357794205
0.016588103766426502,5.7882846039444065,-2.567555282240563
0.6788024982670482,31.07281716109574,-2.953228539280112
4.474784544981363,-22.783259205418116,0.9501947759482838
1.274213573363999,8.869513463340027,1.0356690774326052
0.4493060690479748,1.331563457679633,-2.683560701225379
-3.0548245616150758,40.98031470709063,7.18239220765281
2.410629487934284,23.59974597288541,1.0158483080245946
1.036914944396603,-14.120447533162036,3.3395978001972546
-1.762100639003955,4.682578052365048,4.692748625672048
1.8547262675141354,-4.33588488539722,-2.115733033442847
-0.07008416215576695,40.57899506362797,-4.686122263880365
-1.8309876166163157,8.471747000983928,-2.5386383541849016
0.15377395508286804,15.887881386659487,0.08794675226844426
-5.411932446064347,-8.814622874511414,-5.356273615315757
0.957339710139352,27.658254186705825,-6.101899574848041
1.5271670525267202,11.95648961407748,-4.419030676688639
-4.352057984649395,4.481123705102311,-3.1531082266133756
-4.851679124732048,-3.1731062196325723,4.265065140523305
5.89340355420052,-10.298817893870886,-1.312581428223252
-2.1416360513060715,-6.946791539079842,1.2781105295908517
0.9069155653029509,-11.575627751395688,4.749928709846797
1.6960309302237186,5.7166141472788,-1.7308180511026836
2.526202434318313,16.15991065862775,-0.6158593133549983
-1.7085143242300806,-2.277677819015077,-0.3504399249899516
4.01040873475257,-14.843409782299,-0.1778365705257608
-1.6563611596329533,-10.21282677161462,-0.6387052178419201
5.436611807681253,-25.20846665718556,-3.09326409991895
-5.121662553591582,40.902918958503484,-0.31255156341510787
4.8183122318795,-5.401432875393079,3.95614340868966
1.891503843894153,15.328180211119498,-4.815174514997003
-0.4344694317415731,-5.770529370530023,-1.5130749656214986
-1.2112085485611346,9.303175200565814,-0.4157863372361619
-5.984861169474282,-2.2020203666759675,-5.291232956222384
-0.8599586544919854,0.2101417619177593,0.3415351062760792
1.3254004451147436,-8.209412355524451,-4.213045897906312
6.0616564788245135,-2.2961094012399013,1.2133273209981117
2.6706315489206713,27.921014348164533,3.1980650720195385
2.791752593801422,-16.230050367987214,-0.6697893246908353
2.679996382853978,8.261824767531458,-2.3083118842641936
1.1098485732875554,-7.3402128748535285,-7.135255594367726
0.36013270221818483,-5.42233348008278,-0.14261763320065468
-3.9727849514509455,-19.254202550881505,-1.6081307639893112
0.5689103548668359,-37.36243627021906,0.1657120933193474
1.528702593959718,34.097528212810424,0.0070704696668625775
-0.805328965821944,0.0619791019270064,4.757672800641984
5.511101843395996,-4.447583587248182,-0.2881729726456878
-1.2154159426704938,14.832445981997402,-4.561938631997917
-2.1496613657376753,-28.47663089329226,-1.0695358483920012
0.8155615792980454,-31.990600843701124,2.273366749641481
2.6722950524630846,29.309910759108828,2.0896749768300666
-1.105492939810115,18.332677177428753,-0.9113982691468425
-4.544179979290062,-3.504605909528185,-0.8101979315305528
-0.7737791880561237,27.672960664672505,-5.430706588301818
0.6113980350846254,9.820113093031049,-0.5899437745922647
-3.086411441898318,5.460158322242942,1.1900308672725237
-3.0813698591748886,-18.387894516215113,-4.240045243704636
-0.6181954472630983,-9.505088175200465,-1.806518544250799
-5.662431285636498,-6.000182934714557,2.9976562762093626
-0.27696163243296124,21.174130223359377,1.1102363213114994
-3.5152851769532303,-29.467854873348134,-0.4174289623822765
0.1193926361524075,4.497839485582206,7.995626139909225
0.7741906898595534,-15.419725183236682,1.1720927211342043
3.615305427107762,-8.237307858686114,1.4899597437747691
-1.2098031277115515,-18.302301270316395,1.757025423178875
-2.7482553950997293,-35.89662282269764,1.3222816451197474
3.963994946530241,3.908478954519072,1.875368724607469
-3.261186794719644,2.8744431747975296,-0.855982640770139
2.643267371341049,17.733072954752757,4.2552494676191595
-0.8322462765789941,8.741613000678635,2.854078736977488
0.09757151606887474,-10.943752252295019,1.1416954666620498
-2.4355984519460616,-28.25633204555892,-0.3625151110927172
-0.8165843660530281,-14.264624973117845,1.7541649367425085
1.688925496684656,11.890188070653306,1.3960204106871632
3.0509545521792494,-0.9607144772498182,-2.9738857630122846
-3.9069817115626013,-12.79011136417386,7.453306008239697
2.4053434787844017,17.305561165091927,1.0888276521898326
3.2741958756565683,37.742128066157065,7.9272259261384965
1.148730260692841,20.108323941665898,-3.6052507711784867
-2.6250242481823607,-17.078509994500557,-0.4054916907066297
0.8158479767342458,2.1749551398691622,-0.846092138067766
3.5297598283352962,23.95674717847225,-2.4111107080375964
2.7981804470895333,-10.145150753728865,-2.764413146116477
2.6926683084781944,-27.904259581538863,-0.06099181254514975
-0.3414680747708113,32.085090601678196,-3.334543562341221
1.4165388662168465,-5.6712897855624895,7.034029600636878
-5.449539668699572,-7.871057542161047,-6.976980074417848
-6.496264605688853,17.198678953311205,2.0295881483726927
-2.0666566159513002,-10.617370600924517,-0.8883004023649167
0.22750739208738494,33.31682490184677,10.038296785002242
0.8403987555231215,10.788767599839243,0.09441636815450619
-0.21300395057581614,-0.8178852617960959,-0.39209080865232415
-6.250251104136512,1.9384807008505964,0.5538579076937591
-2.427057652276869,4.634625254331552,6.737878173024045
2.9370286941016603,-1.2604968143652864,4.4773491675350545
1.240307347448877,24.813638032285063,-6.394114068698991
-1.099265705753991,54.18027205993385,0.47947527507912036
-0.4129735578451439,16.376699917333404,3.5612186356284816
-1.9629431990684953,23.998785655083406,2.2070187976924767
-0.21159695214011373,32.641590257179075,1.6479921192673679
2.756773643057223,-7.501644591558598,-2.5273406470238386
1.4487901953489415,-21.316147271302878,-4.1204986836997355
1.2046950024912702,19.298414403669245,1.0654299265547311
-2.0794144625719206,-7.281716498665564,1.4453706426467208
-2.332837181992105,-30.12940369039527,0.5565529623347194
1.9786027719044421,9.304577895034797,0.62331446318636
-3.922259181184088,-6.995808357340041,-1.6989354558724463
0.13837333207480487,30.016452747483942,0.017478416917779894
1.4931250040088395,-2.5093608472455733,-2.320776740319659
6.450268380828655,30.820636149612866,0.1893100544853468
-2.1720119906729316,-8.277002500864663,-0.23141872576540032
1.1290267955043571,-15.366210666629087,6.109791409930367
4.35929154851753,7.339753332731976,0.12456468873391491
-4.9192741785575524,-2.4702159304721496,5.544649856318561
-5.961628128986062,14.392696297877468,-2.10915171494726
-0.39898074296402325,26.968514196200776,0.3127602453946643
2.7803016069687114,10.878144590104114,0.24557892313909285
-0.36527329923853064,27.511999102367184,3.6923966533426027
-0.4196704394232818,20.180996514902287,4.612537312257461
-6.240772393105543,-3.389355319577355,3.9645810823535226
-1.8388363829188095,10.719576662115736,4.7381785427935155
-4.771094084412655,29.64629007605624,-1.102837145941881
4.232860317089961,22.087927770479098,2.7099543732339844
-1.8300108268333888,-12.95722221455399,-0.6769088866040726
-7.551602084387061,0.2710966546968905,-1.6047181725177617
0.6402745778810637,11.63479027938694,-0.9630595800667349
-3.308082099495342,-9.965535995273909,-0.6959535722468834
0.24147444895775108,-32.07039791604524,-0.1884108230259433
3.056815256777443,-1.0905958979865291,0.33544307855686173
4.763042148735751,-1.6005125032913399,-1.7288450420581698
5.785873900583099,-11.846257852631917,4.491270744176015
-0.6303283541179566,7.343010338557839,2.781265446311029
-2.5635911218945524,-8.567317218517845,-7.1771652940961355
2.883304773827312,-23.74866846999944,1.2576579981634148
-2.479622180029471,-6.9817752523498395,-5.445833180720541
1.9531145804014916,7.839499532556476,0.3447675663008271
0.38712472090319405,-2.383080934436743,-4.11551791431815
0.26449199305890725,15.86494859159712,-2.3884666961959358
3.774141137755652,3.3655199418143136,0.895950855127201
1.1871278390820217,13.623476052662612,-3.3490247865076346
-0.38050000884935675,-2.181944385751351,-2.4708506116784354
-1.3594074695758056,-5.608524641909999,1.6159895172605483
-4.368090084639543,-0.1950244064960266,4.265453363927522
1.777536086289732,9.48119427238846,-0.40072032264210966
-1.1869622909498738,-36.05372117218539,-3.251587191178191
-0.8371860535440497,8.243049344985751,1.1149031341578501
2.3205449860293044,-4.261302242454236,1.9002825529676988
-3.1147666139391457,-3.281520971645667,-1.6253513659992227
2.016472411808446,-19.99589684103999,-4.353793606267756
-0.29138526690892325,10.394227212783269,3.283646512666746
-2.970513385687142,-0.021517390537737824,-4.072303559744676
-2.7655845809194597,-3.262644561105641,-3.3134299730901993
0.11670819939638284,-38.39396118559257,0.1040748500991835
-5.164623813172994,-5.2256676241695175,4.602741575244309
-3.318255119599972,-2.880762508286913,-1.1596785816501916
-0.05130452767397825,-35.32636803089967,2.2404306561757386
-3.4756037278326004,-30.750819864450147,1.889972638469809
1.6185103501169624,18.18979435457838,-1.4774158886843085
-2.4144037330594483,-5.698053661896711,-1.00848468013741
3.453210139740151,-13.207479241823766,-3.6607755171045695
1.4031154478146286,-28.266205778300193,2.5442868564047116
-0.9118096907876289,22.140805147789127,3.364884121511707
-1.7798460768850053,24.921788473876077,0.8857049394552332
1.8986586587630767,9.33793507211857,-6.191059981892324
-0.7853987205737704,34.36676283785094,1.8625365140728833
-3.073784044299956,-0.061074896034804205,4.090975227376372
0.228621394078116,-43.90207190830449,-1.2586733020919443
-4.722284338217369,-39.016264905740016,1.4918809056615718
1.1325783780648457,15.840214797138497,2.242411568196598
-0.2899741896066529,-27.01858718695019,-6.583658648715509
-3.5980311091413406,13.273645278888306,-2.628013088554532
-3.089383410986438,0.9800090934085437,-3.503183518699472
-0.8023014286393001,34.56996155024807,-2.537711465471776
3.394355823535689,-12.929407487581802,-3.825930459622182
-0.7544228237026515,1.9428082847725414,-4.115420622230897
2.202394493205781,-26.691329226181836,-0.9794211137944367
-4.15930807326111,-12.775711129531594,4.19203960402289
-1.0960481976823424,-19.959539421925793,4.12950512405873
2.1731107415811595,30.569519854227526,-1.9306799225250748
0.14886095558602164,-24.223310554389187,0.47779438057070955
5.855390315278928,12.296397621219166,-2.3423019684700717
1.5739590905705427,-10.045187798960097,-1.1121168501871708
-0.8461223653641953,7.548632071347958,5.046245152302653
2.7784704085642282,-18.01958761718383,1.5387766936500398
0.3599526307470825,-13.831861045409141,-6.380254599428042
-1.863427059726583,32.57286890982176,0.6961555057938219
-2.2509301678623297,14.587698330173968,0.3792951729409452
-1.874213626386692,3.7183286206957344,-1.692841287700274
1.3710898874588502,-2.4621079738400153,-0.099333925517999
-5.089812240270774,-30.194735545092897,-3.7253354689012106
0.1639298573807726,30.490218941500327,5.5033564567467375
0.999447391000111,5.627543981608564,-4.204087013395394
0.34830603670322674,28.875558411331312,0.015398238122150602
-1.2676184875125214,38.41690056490562,1.8959248771960655
-0.47685424954896855,-7.905709808210995,-2.5943027257508784
4.136748410733916,-15.4491602260845,-0.22053426299625853
1.0723369699096967,-13.439760998116874,2.145259052015046
0.06065279994989421,-10.310559257441119,-0.23122672331850855
-2.5626666634818633,3.387185173538847,2.9516813584810815
2.891452793685053,6.1271386881467595,1.1097432952696538
10.005325249785319,7.894633633282713,-1.2038780637112392
7.347217587665991,28.25079248287878,2.296038611505852
-1.8016684751079826,9.91488287242403,0.7438086270822357
-2.7151926912609694,-3.779022934068524,-0.5123534690411773
4.716857168750063,18.6528694165485,-2.5288241034797614
-0.23737457715065896,1.2999649948826613,1.139647934825782
-1.2008424149721852,-5.2783081767913105,-1.099131332099264
4.0154888987368365,-9.472717534582394,4.910451766119158
-0.49143621225443884,16.013212164692312,-8.121699075220103
0.5691461414974766,7.822014858841426,-4.736071129498015
0.7809340799418507,-19.480447866954528,1.9959722792057852
-0.6676855640986946,-5.378192154024438,0.5737300873644938
0.13978209674969852,-19.286376514182503,0.7712834467967092
-0.22224407303202945,9.234783823293524,-0.6053384228826707
1.0410923202923705,-0.2615614870124763,0.5342336145778732
-0.190532731959658,-3.7204295536411935,3.4043252069041867
4.3317998470295285,-16.578408027448937,0.9586560210701366
-2.6394894180338055,0.9610490215156985,-5.4129245174720575
-1.3873895746759113,6.8047517026578355,-4.103556827380023
2.833009099143048,8.754168851877138,2.275454137939155
-9.934955426239549,3.4157460941063578,-4.687514374602499
-1.0138109512092501,24.40110160105381,0.617737508141291
-5.434119324761558,1.4522083497713458,1.148352814028853
-2.478472701068233,-5.141888644253798,0.8502787612840604
1.0699108322501,25.516066407502706,-4.310367680182574
3.6789444164692586,-47.82153386131064,-1.5622581405625493
-6.866149390495761,0.09794236928535871,4.920047855199755
-0.7436922846915772,10.898021512279811,4.287786302943884
0.7144264875959306,-10.669691804390014,-3.2967328964056275
-3.270553135408247,-23.49588046396243,-1.024519877338602
2.8144736166713082,-19.03476312458251,-6.885239556769001
-11.811562738085065,-37.81691910563423,-5.552704252327725
5.737442643255423,19.66371978646311,3.192897823383626
1.9020360934137261,-66.65215538445125,1.950416314655131
7.491873723847315,39.84868741739696,-4.6279697696924345
-2.3330386786738986,-16.219703048597903,2.5716134936373614
-0.9556468246916977,1.5023836226387068,3.443419612051886
-3.487591649119862,30.915740621264042,-2.2253254025536937
-1.8606105528299024,-12.096604656840885,5.270984312652142
-1.736066101599748,25.298984188520485,2.1366735890207735
-2.3001347090378452,6.766826948982198,3.444908776504754
-3.11860452662282,-1.048834834386109,4.488548668586664
0.650075679529972,12.440871661145998,-3.885461514497623
2.7607033710127973,23.597365925402787,-3.945825729420112
-3.0248212282942246,24.96167343647655,-2.1122036157120707
-1.3070416779777827,7.760806549192509,0.8102324011926787
-1.211438633800901,16.876449066870816,4.735520723383332
2.275847172927462,30.280622529239437,-2.3392055478037
-4.275650499326089,51.05469296631184,-0.8303528355481584
-0.5144128774341019,-19.321381033450148,3.4600165711014164
2.550757229035015,1.1217298681383856,0.5849389302038063
5.719614835733367,-7.547910477608124,-2.318204348145491
-1.951463130248293,32.027303215306404,0.44787227142312547
2.6090676333556813,-42.576983511533626,0.9438490331824027
-0.32184074501698917,-33.1328995741217,1.0144256803757596
2.417954103606969,-40.60591253778102,-3.7263714872937834
1.43832677502257,-13.862324969369503,0.39248819741297636
-5.802186170082235,-30.35712212643842,0.19846170204209904
-1.8445018347411788,13.624056478179769,1.3114516389824014
-1.7867319053974517,-12.378716674174344,-4.525455970213967
-0.6183389331813411,-31.45651764012362,-2.3501340533668453
-0.22489080287992463,-6.822315144192682,0.6882621579903232
1.0455225232292693,7.107460903858576,6.986626648636734
1.052393908745007,-17.32600174836711,-0.42103751572078574
-0.5617972384494556,-27.755382316067923,2.1264497381298315
7.1417725729634745,5.62723606556722,-0.6930221165904463
-3.7239615438861895,19.893150917707526,-0.36446972264855954
0.8645184505921891,1.3184775599131333,2.249498044725119
1.5700926852628807,-11.948057619286173,0.4150195370784651
-4.051620862958022,9.01335287635185,4.185961673844973
-5.170722073031526,-9.041799849063388,1.1745565933164825
1.990209303725289,2.8850138964725933,-2.204181850117755
1.7220547836966569,15.30171371911654,-2.7393214521987574
1.9032625907952765,28.952902433193756,3.68438570561637
1.8915789290232503,5.671197678286376,-1.1081130085996436
1.2793868253501557,41.59543168628923,-4.389867018677879
-4.142345503061511,20.26811804060502,5.731130963012922
0.8049483709835183,21.70076209502762,1.4787802231645064
-1.651638367072237,-42.83928111818966,-0.35871404143967156
3.4164312364526723,-14.554883135443815,1.8837950647085044
0.7464179497692877,-10.537576044668878,-1.0320619487755365
1.196434624966173,-5.956211524034283,-0.31619166152604894
-0.37085340132795497,54.54297550326038,2.37196069530515
4.997813925195439,35.46614840341153,2.530689893789099
-3.19150992647106,-19.54583827950507,-1.8278550537561997
3.997310063307946,-13.923244357737904,6.52337429330271
0.9223691834702232,13.008415161925209,-0.37517254505523256
1.8862659969715578,-2.116675530371086,2.5504681869377
-2.927685985527527,-19.78795732580161,2.187461679942622
-0.4605609739355168,-9.17821197635609,4.674792451746137
1.7180244349790386,25.76348707703282,2.5267744314214777
-0.27709145261971313,-3.540277882792412,0.8467426943180865
-4.543737797765793,8.274273581151103,-5.00333199575876
1.6333551368036114,4.447620501318188,-1.8260347635611744
-0.8690741556248571,16.883778110451953,-2.591999359996171
2.066535293300169,-0.8031089700875966,-0.15090337885122973
4.22762088806302,-28.866121984236898,-3.94662078349879
-0.4206431582423965,-20.4440446303605,-4.636964494824492
-3.053240465439902,-11.676626902123935,2.5991370933396754
5.052732210484697,-24.698106970920094,1.2693125596088581
1.7223309283384,7.268123542956689,-0.7032013228356238
5.868601605035934,-8.113278963594373,3.7876147802344082
-2.0186472896199597,20.985812945634052,0.4424542781591661
4.83410422501186,5.86143350681046,-0.5443472490971928
0.3976250190729855,8.748430152032826,6.295143278358879
-1.4237112657762512,14.64891686524276,-1.5653309461046778
0.4017469912149538,1.888587681159824,-3.0629956848742586
1.544749210012163,15.48334340336796,1.5268534014327158
2.536799700952399,27.94613573580315,-9.260884885494363
3.818666382205392,-15.764490632264469,-0.6413026190967454
-5.985325225324157,22.907944261383786,-1.1900081539698535
1.436653671298075,-38.601974493373206,1.489006603446531
-0.11921395432575094,-7.0246170165062845,2.4191607700392437
2.5018907373491155,-29.754248942723052,-2.7841257591276607
0.27364669549152176,-43.848592243166316,0.8007654933618245
-0.43307795380914493,29.084560787118534,4.916170247847981
-0.156382260223524,1.8298551973932602,2.408439939620248
-1.044807715415614,38.00413732098405,-3.518270998892174
0.018669810541859115,21.557315604834397,1.2945446181106637
-0.6552083298799031,1.335656146302066,-5.374471083411881
0.025373192492894187,1.617019972221129,-3.2296111173566584
9.349820551767188,18.9973118699072,3.035241490620689
-0.20012182115872554,5.912242389128568,-5.60911849083411
-1.5934328219338396,-1.1560535504162335,1.807534191632991
6.916907766996917,11.292072337504363,-7.988815873176398
0.8446523513081068,10.805534862336224,-0.14702665034534088
1.0444562116132265,-10.191646705364274,-6.013677040766427
3.501980635455198,-23.0020396426131,5.747096440419033
1.44532401200781,-6.971187369324176,1.9783285675396356
3.611401997492164,7.510133163947206,1.980565646992176
-1.996048453468531,34.86565216209321,2.91747063402368
-1.8521113194175558,-18.15197946593051,2.937438295505101
0.39056026737123467,-3.110797416987486,1.6749545504617795
-2.527921745766147,-6.756634140179507,-3.159161438065822
0.8741689826143331,-21.779713211286335,0.5173579771548455
-0.5295535396882824,31.942596323947527,-1.4706044914988672
4.235605871556513,-12.78954139099583,3.689389655935903
4.192011609264125,20.2358562746545,-1.4327371873929269
-6.47768701808029,-24.648996514997513,-0.12296763461556705
5.223934034583586,19.388882192712344,2.876130842741996
-0.5339016340757805,22.763175021841505,0.6399698667981092
0.2713546347999458,-21.010725648323596,-1.4043570230624935
-1.9540607266514485,11.822180040972185,-1.1934056124831762
-1.8161135929408143,30.806196522012687,0.6434388703069254
0.4384066805642166,-19.27572435855363,0.8950915859096084
3.467253829399275,-4.074214146824509,-4.051085084696802
2.793580948091715,-17.959512583016625,0.7394050132372856
-1.5331634537358587,-1.0206391113306752,0.6750019162309735
-4.018887508794128,10.404923551393649,1.918415614170708
-0.4450512205925365,-3.7150814389010787,0.2367623584869647
5.954455642764419,-19.954741973234466,-2.8005402615854043
-1.0734374410862713,6.679238944729565,-2.2468945238322773
1.7363054601056815,21.44611307626144,4.390945436199897
1.8016910660157786,10.511448556933411,-2.6123799677770236
6.807107484524552,-12.164598483422719,2.515818398201288
-0.4483380530807685,18.837855429538653,2.1868582693099894
1.637590704308155,-23.589528736905777,2.3356075832990477
-3.346942957906961,31.26125608369352,-1.520181173357467
1.9857988792830294,27.018788507363222,-2.954969841268437
0.25281052776420154,12.062748522331521,-0.12105133699628108
-2.9377468791997643,-14.76224375404393,-0.07790754959532463
0.8222044781767477,15.951520305649822,1.5846498352730076
5.866289310659849,-32.62417237087732,4.705033794753751
6.2393326715361015,35.538339876841434,-0.5526569250218768
2.403929254313756,-8.409226641404816,-1.6446330729683203
1.5629465111770366,-20.892533199474578,-1.6568976233420916
3.8924624315544833,43.02064389397872,4.604145985042611
-1.3618304639288308,12.668635094172423,-0.6347192269465777
-2.0023661176166048,-10.618470914506135,-2.1869983690900145
-1.0902022385584857,1.734069738984724,-4.120603237153334
3.168172459309763,-6.753801960576881,-5.964924026263939
5.969363747128914,-8.206446974333014,2.380689649970295
-1.8818031971253346,0.7923881292090559,-2.537882888641975
1.7881944137122827,-21.21822949821379,2.633933111973876
3.1174395116333513,-23.174617740366266,-2.4463503131684727
-2.7872873771842075,-19.680391756372657,-2.895021643390372
-5.418837336853141,-16.08355262062418,3.3010165304723555
-3.5073613131906187,3.2719657115473826,-0.322837458976081
1.763961354725504,2.9986349429148427,0.9699065761143983
-5.5103370826138605,3.4033129159027022,-2.920339237577808
0.7551237843197648,16.845493225773154,5.271782285781703
-3.0434788619738393,2.3050777186068974,-0.27886175939932983
2.871755845029744,4.885167919123345,3.6642622181938185
-8.048679346184766,20.709511177370885,2.7112200827741586
1.6703870949211361,-16.503327654289116,-1.1296382267143563
1.016954336662475,-30.119071037448734,3.0458870283170887
0.938793001745315,2.5612496117857733,-0.9231131398093462
-3.418449222680606,-16.112207572594723,0.9814926319470737
1.3072617761968865,-3.802273952929286,-2.1185702158864794
3.126835149154172,-8.274823257158404,-1.7092635881642728
-0.43457802096803705,20.050564275626307,0.11196925951934984
0.4075766169524251,27.764237375796633,5.2540825703533045
0.8033563190325722,-9.879450032018543,-1.4126675941005542
1.537144072304302,23.67495565116038,2.4251002558273416
-0.9456869495580222,14.595394048398326,6.270941231381558
-2.477235985270659,11.069736193204468,-1.145322677326128
1.7284804459989684,-4.4711621297797475,-1.0758190492872461
-1.2498235060618779,-21.002613576520574,1.4255429164667934
0.9917123316638508,8.321172188424015,3.0360368091394907
-3.265921856912328,-10.193660392693092,1.0916542220390328
-1.3814260117938006,28.111318027022847,3.7094459699700644
0.46229541114151046,25.95077629013894,6.579365032779166
3.3261872979944873,-2.569502845498133,4.847728035499032
0.7247048491240285,-9.297486806504192,-9.011735096892163
1.0782645802232493,1.7514290093766323,1.9733033570950178
2.2815989233599105,-33.60852231601392,-1.593710969815821
2.851367922510685,-14.638619362687326,3.8102956114752247
4.746090544338909,-34.703220201527266,-2.3214732431876066
-2.6831377785697645,-16.956692893057408,-2.6067477426077126
-5.637685739112537,11.956273935553225,4.972888688448288
-0.5019294284740539,-24.458627021369345,3.3183725750734525
0.24321764068940502,-16.493035171595462,3.8310277496773693
-0.07644793028290828,7.101122482726619,2.8579828629290747
-0.8110518996806617,-15.371751327031483,0.10845912995241164
2.2507775748323375,-7.92281435575903,-2.797794394356973
-1.6528127977154732,7.350574234904028,-1.242397882609149
-4.897116824683663,7.220626997221643,5.3440437185298855
-3.083297104690311,11.133861197849747,-4.245369485450776
3.1987669478063814,9.220339752167597,1.132346981571814
2.3292983235539304,-21.038117987645688,-2.8957547145182643
-1.5099549923129436,-3.5403125866608747,-1.0913923165566248
6.427580371981747,-9.931426249225241,1.9674800562886343
-2.1698206677085192,1.0819525741144473,-2.5362432979311764
1.1541530069312627,46.50133363826583,2.2451438284426652
3.0138648389609326,-1.449450363543147,-1.6043591547790061
3.395789615200189,4.111385857472118,0.6241596649360519
1.0951047582237556,7.434618065559004,-3.5078808051182433
0.4113419239016637,50.86445976048419,2.910776142475665
3.1482595353407574,-71.58558925464546,0.3525645124461208
3.6717368415786664,17.722293280322663,1.848229017833364
2.2422727521142494,-20.23259566111239,-2.444981976360748
0.7059217069851476,-4.327381967608234,-1.0288431760571881
1.6529621011648234,6.048385480601212,1.4823847045249563
0.5909732114221321,-1.7275692083067322,-6.915917947264076
-1.7283984649737925,-11.954723236374587,-5.68084041733686
-0.8993618700945708,-23.856401580913612,-1.326938642695524
0.7174974579128102,17.00528359420658,-5.470613315299521
-5.343651903095363,30.682477112009035,-2.568668374677208
-3.277001791276319,3.3556727642290847,0.9389570851750239
-1.860142564354702,-6.459494844151807,-5.469810091070098
-0.9336193309547552,-8.496027287821875,-0.5055378935726516
-4.915287001467158,-20.69523004537629,2.9544956342987514
-7.668354124148734,16.592127479320006,2.1197322000222627
0.37091488497132763,14.767058246508457,-1.3279209710355946
-3.261213166483232,-12.668518643776899,0.7693367873427543
-2.069418234851868,16.80238145596511,-0.8102915572944333
3.292341505738109,3.745020662950347,3.7291828969851553
4.447628317247885,32.75863210964426,2.0839260089455616
-6.724077628031516,48.92241655012646,0.8891759153132439
4.245340497888565,20.936078872671022,1.2593907563328708
0.6803860711694414,-3.4094232779826648,-1.1171322132904722
1.4292443732639244,10.339951699538053,-0.43895904396512303
0.1516600125290228,-4.538968405989187,-2.2829843917569312
4.858010418957026,-5.677928413181384,4.560154509435194
-3.5963231901390915,-4.063342826546539,-0.1311728420655697
-6.81163253035195,-3.206354470279041,-1.464539531690337
1.2824752471501781,23.295208217624694,1.7560466743722472
2.9275336021472875,7.863522191873138,7.893493683678488
-2.901219156915894,19.71274192127022,-1.3984358517255855
2.969113553017694,-7.961966974203577,2.70141655763648
1.5865035991237508,-5.632942154218314,0.70485361033922
-6.7133375892344835,-2.370675526711986,-1.4746147176936328
1.8646043433053268,6.502520091013618,-2.2687336673151663
-1.0710831048028713,6.278903142017006,5.83181503028672
1.6006619598000154,-14.654009138261468,-1.8587921293778635
6.214879008469156,-19.951675418359482,5.092954647395268
1.973511797860962,27.314784934421517,-4.481494508694375
5.7561683518935425,6.068449398841734,-0.15718552562433621
-3.442292071590519,-0.19977236209287763,0.10257259491163262
5.863256187293316,-10.743619145466395,-1.0188493297615158
2.4885850242353857,-15.36738886151059,0.01116477781502647
0.8465067720441644,-23.45550148228447,0.6186313195570616
1.7645861757493695,-16.86695203770864,0.6789736854679791
1.1032509289967305,4.698362073962564,-2.3201286623333046
-1.165064200961405,2.3914057721626545,-0.21758414236704648
2.44278169523108,12.667158470751405,8.34916281175542
2.7625897790465324,-30.258962938498584,2.1516688964851416
1.023776705649608,-42.2833901631746,6.203982185917439
-2.2205693974152982,-11.13152085209455,-0.31369587483083194
-2.015783334995246,0.3128888965223401,-0.18602870886233297
3.9748855916756587,0.005927680420257375,3.426617770503357
-3.0138005974765676,-22.01931290889342,0.8953651290719713
-8.262265610688763,2.34262375579426,-4.042132968937307
-3.6317032252599817,1.824179147850725,7.5045411327982325
1.2753064714203342,2.2150360511120155,-4.128788573514481
-0.24276692230792143,4.445386931057863,2.974787621057408
1.9696458756273045,4.401869716758821,-1.0615465130293311
-3.3959393137971237,41.81558710581929,1.1530726436965233
0.724314593857128,16.71294861618515,0.8289260667158103
-0.5516062822082622,5.067174097257498,-5.239736308083204
2.8490037925565725,28.18878999596923,-0.6545415436329407
-1.679376265193021,-4.082797512621482,0.32971450657560947
0.19176913527403885,34.05116535277161,1.6839618746575338
-1.4645990827222493,-6.604791724005769,-1.3619356124837612
2.274276122394577,-32.13474522852419,-6.9761924636867745
-2.488846067705931,-15.003448174719656,5.438302670402147
3.7703156109699516,7.332207654488575,0.8413584335096604
1.9498098352748303,-4.078657238879001,0.4476701142769482
5.667481489387786,-11.96675804738707,2.8831581428076882
-3.33543204742394,-3.4643161422961293,2.6693278409536645
3.7985551648058933,24.46842213046234,1.2443635929310481
3.2220433792184973,-9.516891644698996,-2.66971064921143
2.906388518528566,15.803878360509609,1.552450549140725
-5.69410193780238,2.0211695981621434,-4.847111397035626
6.258614693331645,20.51378519858474,1.4063925619824182
-3.4513296335784753,-9.998990606804153,-2.5585921733716517
1.5644254324205271,1.1027240110777046,0.8609844146599849
-1.4719848564593736,-36.170716750224045,4.444271752834308
-5.681651790765128,-20.799762545426407,-5.5334553725089854
3.428158325125675,8.295116642891983,0.756418774140469
0.6181528067880488,-1.4684649626275323,-0.3049919243886918
0.28888501806062933,-19.242660089779125,-4.7193050143526545
-2.0627817310582675,-0.06139311832578154,11.355819490399906
-5.183430188586749,23.23855538337287,2.5773116144913515
-4.339575057156387,-4.947848603374904,-1.2513335909564463
-2.925652667732749,0.5523631856864157,1.4963959425715612
-0.19928595737381458,-29.090900502233236,-2.38429091771517
0.4439042330859669,26.718469550520666,-1.4763305350689007
2.973458006804435,17.786402904449258,-1.4951632918409008
-3.526824028003807,-1.9619103654388645,3.2316067545270686
6.985192585086141,-36.55004836715928,-0.9243831098496886
1.2437500311636744,9.245132366929063,-2.798423937753163
-5.1182719929149085,21.334127138161207,-5.563163413955599
-1.210922586221433,9.259393760623977,-2.102271405271265
-6.339738509383326,-3.896317257792451,1.032360751657695
3.88742157243604,1.5376096590625858,-1.9070637722511514
-1.4923320819520367,40.325051446347025,2.4973577652376626
-0.2863051486194258,23.75472747643259,-2.743656654724877
2.523305481809362,12.393850826579813,1.2859800277504543
3.900410815796539,-3.5761156999376684,7.104222216949537
-3.8530869286441964,-34.547769623758086,-2.6168394905774846
-1.3231986999828933,19.50830368654716,-2.649938854184332
3.0744788286899,-27.819946742458697,2.3786740698794153
6.961470568912262,46.1259396797831,4.361359336910123
-0.7211142594211025,-16.35961526203139,2.210050722179835
-1.8655086175600368,-6.549648525069432,-6.044378613100468
-0.26497623655354025,-11.054345510283932,1.4631623650495023
-4.856959154426751,-19.276555187173486,-0.7618230391478565
-1.558338364045954,-23.22210037387375,-1.2837524012757056
0.38664488233481714,-20.846157437856768,-0.07315343426876318
3.1305575256685185,34.20653468055497,-3.3813259607468846
3.4359179268715794,62.99285752029905,-2.060608536022876
-0.5833262964499933,27.921268848474153,-4.237521573204998
-4.911826990828357,-42.40705219733869,-0.003733984639072577
2.372150929590076,11.923081070547825,-3.0773745440831703
-6.741846762957818,-0.2556344876295864,1.158478000344444
5.724186348994619,1.0797351891939215,-2.6653542100735264
3.4294640857152583,9.407492223992163,-4.349104636948161
-0.8146389224339515,-6.060323333202661,0.48995966075272
-4.315399573507704,-4.351003883344467,-0.7559533073098138
0.8694867131713295,0.4307156271223779,-1.5653124208614009
0.9375840888905582,-13.67911692724687,-0.20997564932020946
-3.849012876572206,-7.797721800356626,-2.483172882612993
-3.6912448315404487,-18.5936568341756,-0.9005973516970943
-3.198929510215291,19.683718872657284,-3.725231950993066
3.5118657438003344,-2.3987464012046873,-0.921719173118884
1.0072914003491282,27.4389987981865,0.9575993988584809
5.0316471421784685,30.669882810002647,-2.526396273506284
-1.6418087693860792,10.688431423201221,-3.3065603770423557
-3.484498946449203,18.291653252958533,-1.2066345397048028
-4.649042169565611,-13.912069019789634,2.322284036342504
-2.6538616356813898,-1.051053770974529,0.9489984243035784
-5.161065536593928,-14.746180080520315,3.9821761438801904
-2.888098222149112,-7.249462570047834,-2.2232131191073314
0.05213103250018734,-15.229797000871304,1.0550368631726097
2.2010628788305913,13.516046937307665,1.5516804955418733
-2.6116966779427258,22.280622445390474,0.6752572656112138
2.217706566750543,23.461389999625112,3.318396108047944
0.5931469304564434,45.82676741843559,-3.6252205150482544
-2.758011503559348,-31.202771643372106,-1.9277371671564398
2.3880721618272154,-76.67273121307086,-3.5100703179536086
0.7266103495284554,-4.090968290007146,5.238785636471347
-2.0666798534544557,-0.7439028529777145,-2.245069667358846
-2.4684663827417377,5.51403469126688,1.1291858180150764
3.047328721518315,-19.04048653081206,-6.723194455624234
-1.0071914637835535,31.19437073319793,-0.4997356613022873
3.5013488320472144,-10.899004679431524,0.13101664498351953
0.9315603117154678,46.43559803883075,-0.4422916504114362
-2.4139838544589516,-6.568735671987094,2.0830524356970086
-0.40134648239863757,6.947839094649517,4.82317360144546
-2.0807764756470446,-11.8482878823656,-5.6731894799375375
7.7045659914711,16.978385465593163,0.26746783386690204
-2.3473703441590428,-6.8226428449278185,6.6505406347070775
-7.265444126502271,-8.393204172433883,2.7658408584615493
-2.503017292157597,40.879097561384356,0.24890884755334772
-2.669245168168424,36.83893996675781,0.3449316309735374
0.9930370228232849,-13.93858595612716,1.4187335294128685
-3.984020403208339,30.945067203985595,-2.472828506367545
3.1752862289620554,-5.344884704784032,-6.485890106503016
-5.361404285717571,7.92652211685578,0.5333411665493373
-0.9297954918494478,8.726799241690326,5.687141459513199
-7.566758871642036,-21.278536177241673,0.9651117113958282
2.1475078452917473,8.221741635898407,-2.158075510533032
-0.18169328631649792,-6.754930599963759,-1.0624083953474506
-0.27061624445178223,7.861293013360778,-0.327961794694729
-2.2674846350474724,5.985883718295542,0.8237397470898983
-1.3961862531187283,18.38680640970005,-0.5096288428794797
0.18253015946352835,-3.7634713039828736,2.5930177887637726
1.205291359676085,-4.965253388193988,5.009221407270813
4.6642067381675325,19.5825172489781,-2.2709204252606785
0.4403917789398133,12.828334971977737,0.4471205913849922
-2.176206800404752,-29.635483356773957,-1.9667200154730278
-3.141862501740732,22.777811063663734,-8.501022375869704
7.561020411398754,1.048195047736364,1.5868578262891972
2.796179947646554,-23.56125343311618,1.8985348309796968
-0.7485782681906391,-32.62676810136248,3.850622039237988
-1.7042124759290511,-42.26248037754997,-1.0661606975847688
-1.1302450104555506,-15.765802234724585,-2.3836754140137466
-4.170062637408086,-1.6578326628916016,2.9174282006891494
-1.751757498652554,2.942442757747741,2.591877840796821
-2.8330409502403464,6.244913363194074,-2.3181055954626855
2.647836543898525,21.468077308178344,-0.7502999871501811
3.0358713217399744,-7.8459504852999995,1.2058844919497853
2.0766480353934447,-10.663838020549704,8.38841570089983
-2.6425012967179833,-27.612265757020985,-1.2698343169045476
8.113837770244913,16.32908557734917,2.965270656721903
4.056914520009168,18.225764182538928,1.4238997210724527
-0.8311248522985853,12.805552149536204,0.6983860988074562
1.597209354199607,-2.169747782238666,0.1083963910116784
2.5638124375305495,10.286333472160479,-5.749119498569204
-0.33099099098090057,-4.9688708145856495,-0.9934389635563409
-0.033988965374867786,-36.85786521836439,1.1929812445304164
2.002427589243739,12.21317047695073,2.4587441176823863
-3.831609374747571,32.7372927290029,-2.266550709738251
5.623839635202857,-11.494472266355064,1.2164663048604845
-1.254947138307753,7.976447616244157,-6.338698531159607
1.714546654032483,11.068478821030943,-5.7947025330620985
0.6895368967568298,30.455227953656603,4.056822976830096
-2.6699748013669597,-23.00449721179333,-4.550965828434343
-3.9449336843810237,-4.503931585393525,0.9252499438700772
2.0011901999592565,-10.920058762262286,1.4968604871347273
0.7772957632687599,-25.898827763123606,-3.0271872520747425
2.760738008196598,-11.788002792457508,-4.3647857287465115
1.5577849217172617,14.86326879609998,2.769798134775647
-2.2149894135960806,-13.568528049331,0.8040417761202691
1.611357277433812,12.172278608032583,-4.695278192338995
-3.0238241474414047,17.126510373325637,6.976717048045175
5.145338302214077,6.618017812500113,6.744656998195695
0.9792608668914684,-17.434443028292485,5.771922967644975
-0.08176158060695354,-42.04223307610122,2.276022816785716
5.799980760920139,8.753414536890526,2.730772088780059
2.0729713953374658,2.508247994607246,-2.071772739860418
0.7026484871652724,-8.135766151564056,6.096345990117854
0.2534661697132635,-33.22343705128673,-2.972293982052434
0.349154356922718,-13.756831663515484,0.23871710142037478
-4.181023580755253,-9.157577187793958,0.8583379451331917
-3.8255356275093257,2.537522984552211,-2.5645157452318275
-2.4331621541273196,16.90164290083177,0.17204382474285915
-1.9091400601270119,-8.302914403881658,-5.031154516674233
4.553925141906111,37.891919256873834,0.15421158494865342
-1.4014184275895167,-24.35143139545655,-3.313247630525568
-7.051416731603892,-10.310938667714803,3.214935732168983
3.9677937418086464,-1.2561731846632223,1.1445487966837267
2.2374009182179524,52.67746697230893,-1.1929286503832173
-3.9893751120391,-2.489240751627935,-0.8277080786708386
-1.0373998128635649,1.2270234973303413,-0.9666021879057037
0.25439898622598944,-1.7035210064486837,-4.316812861916802
0.2555636081584807,22.501156016194706,4.553418169904152
2.1836189787956677,-10.675972024381764,-4.41862524416719
1.9226006159719469,30.1725221153346,1.0339050966694445
-0.7171773532900462,-25.493285018040147,0.9034418796587574
-0.9769527219383765,18.103830393986126,2.704097976382768
4.850689404521589,-9.652927817976952,5.178861048230172
4.927748585769269,1.8371100288746511,0.8020406553627011
3.1550908509383917,4.776049599096692,-0.3298122865555386
4.949581898673313,-23.6252414772142,0.6659928763216817
-0.21005051356805482,-22.97474714851976,-3.7267296019231244
2.0567291784818806,-3.0777608919862014,0.8720649421967691
-3.115033696075585,-2.5518825521795345,1.2739675062353957
-1.7434763560633135,-34.814180798512886,-4.214459198123424
0.06489209310137507,2.3376299855733556,-0.31042431016059996
-7.0137242545161556,3.5153368560646565,1.3560831822949464
-1.224311827301865,-9.462816446526165,-3.4097853295006737
3.4230114316655817,-9.567357308309271,-0.8827693862874177
-6.944112835019819,-5.243566587763537,1.9479862108302621
-1.3041114371560059,12.746329625384181,0.5873079943587967
-2.495065069747281,-5.0492556748420485,-1.8169690158347875
-0.26395093220447224,5.927513869100734,-0.03865317275268727
0.13641567363995608,42.36403168520749,-2.495684066933965
-1.0522853955448466,-40.28715232359272,2.9749679901898567
-0.3024306066668088,21.13702351316449,0.8152975209015304
-1.5328061394728654,23.088304937229218,-2.780597836829194
-1.4933866612616695,8.796081829901315,-6.736553479734252
0.24806908210777187,4.22472688934226,-0.7474156237996599
3.307122847304291,14.039261184679734,4.709288668908665
4.074446741454543,-4.482687565825182,-1.6963474641267124
1.2679783994300313,35.42573812371446,-3.128849573978053
2.408747861886214,41.761157960713575,-1.9088698203720735
-0.5181708030667544,0.8076173202874701,-0.1998383375425734
-0.8872064126274679,0.4019806251817434,-2.30140199652232
-0.23315931508585855,-24.861354350508662,-1.065376986032418
-0.09636017893746472,1.5550932906925277,-2.9626235000215506
-4.820929049028648,-42.58643706873163,5.652688374139526
0.9890471755330928,-4.060097949399159,-2.8229739221673897
-1.8138333015044878,15.071886210872746,-4.398236366973085
-0.9365720429099469,32.123168347104134,2.088240871689135
1.3453973031263111,15.250476008246643,0.15500626110125426
-0.6367430802932864,-7.159812825307936,-1.0743589811538525
-2.455551090987299,-29.581195081990874,-3.5759735179745604
-0.1809709731210197,19.619191563080165,-7.356024216006342
-0.8521162938735801,21.003083759363506,-2.6873710387658756
